# .PCD v0.7 - Point Cloud Data file format
VERSION 0.7
FIELDS x y z intensity
SIZE 4 4 4 4
TYPE F F F F
COUNT 1 1 1 1
WIDTH 1140
HEIGHT 1
VIEWPOINT 0 0 0 1 0 0 0
POINTS 1140
DATA ascii
79.891418 30.005428 -1.577985 0.092766978
80.313309 30.166092 -1.5826719 0.090380445
80.658661 30.249636 -1.5757995 0.089520983
81.115906 30.192766 -1.5544865 0.090545326
81.827354 30.015224 -1.5537119 0.092180826
82.031975 30.002871 -1.5510125 0.092180826
83.47876 30.075586 -1.5402908 0.090087369
83.557449 30.027683 -1.5123115 0.092180826
78.073753 30.57066 -1.522808 0.086277321
79.787468 30.539429 -1.5313102 0.086580873
80.933311 30.528368 -1.5810044 0.087240294
83.294365 25.102818 -1.4778078 0.12622011
83.730904 25.184235 -1.4654832 0.12728778
84.169937 25.140162 -1.4605224 0.13003018
85.222763 25.212982 -1.4739034 0.11510396
85.653564 25.109856 -1.4704708 0.1145806
86.169548 25.390558 -1.4650059 0.12111068
86.755295 25.300611 -1.2891628 0.11934579
87.254105 25.118992 -1.3628671 0.12573045
87.688591 25.206802 -1.4208446 0.12212745
88.111946 25.147837 -1.3906137 0.12567583
90.169083 25.067829 -1.3638158 0.12842521
90.657394 25.25675 -1.3526838 0.12814608
92.99929 25.178673 -1.3964465 0.12203324
94.028404 25.162327 -1.3652885 0.13086756
96.928436 25.071304 -1.328423 0.11180314
97.070145 25.109325 -1.2993495 0.13821715
100.34042 25.087172 -1.4317268 0.094274238
101.18355 25.070179 -1.4322796 0.097707488
101.7366 25.192787 -1.4512758 0.094148651
102.36249 25.303185 -1.425162 0.097623751
102.78632 25.24535 -1.3936772 0.094204471
103.22538 25.21937 -1.369974 0.10046733
103.67058 25.397448 -1.3448062 0.099675313
104.89575 25.220482 -1.2872856 0.097414397
105.28806 25.058256 -1.3000247 0.099507831
105.83235 25.339554 -1.3086863 0.095378548
106.09048 25.207314 -1.275485 0.10009402
106.7943 25.361654 -1.2178479 0.1048182
107.34372 25.195282 -1.223506 0.10429134
107.7243 25.399847 -1.1993426 0.10613706
108.36546 25.300976 -1.2373708 0.091003254
108.61789 25.435722 -1.2326007 0.089710563
109.29549 25.191908 -1.2201836 0.093698561
109.589 25.260796 -1.2008741 0.09609554
110.36008 25.232693 -1.1875323 0.09257856
110.70221 25.49663 -1.1746902 0.089040637
111.41567 25.24469 -1.1253979 0.099706724
111.75349 25.337307 -1.1361048 0.09888237
112.25632 25.191433 -1.094488 0.10315043
112.65664 25.275599 -1.1271297 0.090589799
115.89758 25.109051 -1.0066254 0.10871898
116.22121 25.222235 -1.0110046 0.10808396
80.752869 25.917862 -1.4945531 0.11700377
85.277847 25.775763 -1.4817842 0.10719075
85.664291 25.957571 -1.4858696 0.1136595
86.252815 25.725077 -1.4140043 0.11242959
86.838341 25.819763 -1.4392024 0.11337632
87.213043 25.869438 -1.4045508 0.11633348
88.549873 25.600321 -1.4200031 0.12567583
89.301491 25.805819 -1.3714514 0.12428019
89.665573 25.962067 -1.3490109 0.12305902
91.260551 25.765284 -1.340461 0.1285229
91.749123 25.667023 -1.3190901 0.1304698
96.95163 25.750591 -1.4643478 0.088337712
97.063858 25.611454 -1.30389 0.13330618
101.32375 25.615484 -1.3815511 0.095320962
101.79635 25.539024 -1.4235601 0.093876496
102.19405 25.765724 -1.4036317 0.094085835
102.75718 25.634989 -1.4145269 0.095851302
103.21338 25.744934 -1.38304 0.091734216
103.65365 25.871405 -1.3507746 0.091664433
104.14209 25.722702 -1.3279558 0.10071157
104.52596 25.911755 -1.3059436 0.09967532
105.75137 25.690216 -1.2617744 0.097309738
106.21817 25.937435 -1.2584587 0.096891046
106.7475 25.735088 -1.2501781 0.095676854
107.05661 25.717798 -1.2283887 0.10097326
107.77179 25.713694 -1.1638603 0.11468527
108.17654 25.70484 -1.1850855 0.10400873
108.71307 25.633968 -1.2028253 0.097414412
109.16316 25.830385 -1.168869 0.10255031
109.82273 25.71456 -1.1814688 0.094377182
110.32609 25.834801 -1.042171 0.12796465
110.81319 25.632267 -1.1534746 0.095080212
111.28018 25.682764 -1.0239074 0.12611546
111.76144 25.657658 -1.1189173 0.092835017
112.10351 25.767595 -1.1037037 0.094147503
113.21754 25.718 -1.1020787 0.090087369
116.42184 25.501081 -1.0099874 0.10633244
116.52171 25.623449 -1.007077 0.10572536
81.217972 26.164211 -1.4893939 0.11314137
81.695473 26.261984 -1.4641259 0.11695037
82.278206 26.371557 -1.4957186 0.11311519
84.712234 26.390087 -1.4832274 0.11688338
85.616783 26.089863 -1.4686249 0.10369472
86.181763 26.319252 -1.4568768 0.10683488
86.781403 26.186548 -1.3537333 0.11390605
87.265854 26.069294 -1.403143 0.11262536
87.807037 26.329857 -1.4092904 0.11134972
88.223267 26.457466 -1.4116863 0.11363854
88.662132 26.242662 -1.4199727 0.12567583
89.905876 26.127453 -1.3631194 0.12335211
90.264091 26.2479 -1.3464842 0.12276944
90.740265 26.29698 -1.3556665 0.12497803
91.327927 26.444567 -1.3388265 0.12483845
93.457344 26.203264 -1.2746576 0.13086756
93.628525 26.307945 -1.2726249 0.13003018
96.946075 26.13942 -1.401865 0.094040588
97.053505 26.28014 -1.3111312 0.12698293
97.593346 26.440868 -1.3066649 0.12148895
102.3452 26.167839 -1.3766094 0.092138939
102.67832 26.360691 -1.3607061 0.092180803
103.31101 26.095064 -1.3739665 0.096105993
103.75906 26.297167 -1.3709626 0.094662704
104.12451 26.264366 -1.3305503 0.092613451
104.69269 26.196354 -1.317528 0.10320277
105.23351 26.230093 -1.277156 0.10206185
105.72672 26.380196 -1.252583 0.10305274
106.3744 26.360687 -1.2132232 0.09998934
107.25896 26.408943 -1.1802825 0.10995933
107.72499 26.189573 -1.1922841 0.10155767
108.17967 26.218857 -1.1379095 0.11015822
108.77913 26.303259 -1.1439337 0.10438643
109.44068 26.175343 -1.1524246 0.10226072
109.79214 26.252079 -1.153863 0.098011047
110.21135 26.278027 -1.140877 0.098244801
110.57428 26.183115 -1.1453575 0.098768167
111.40361 26.204708 -1.1374214 0.093227528
112.64599 26.225994 -1.0948758 0.096158341
113.01379 26.478519 -1.0693151 0.096367694
77.971939 26.900219 -1.3263882 0.12370554
78.059135 26.900263 -1.4775738 0.12105425
79.423187 26.785973 -1.4349952 0.11673325
79.71888 26.77483 -1.4756719 0.11210877
80.935608 26.786268 -1.467957 0.1107909
81.064171 26.874842 -1.4812027 0.10676137
82.237213 26.690651 -1.4614196 0.11182773
82.741768 26.606512 -1.470637 0.11310996
83.173492 26.689724 -1.466813 0.11311519
83.533424 26.860508 -1.4328988 0.11449686
84.980141 26.665827 -1.484118 0.11206849
85.317795 26.786314 -1.4880018 0.1108159
85.731392 26.89978 -1.4775227 0.10776994
86.322105 26.683342 -1.4777975 0.11451343
86.760231 26.759993 -1.4685465 0.11465038
87.137985 26.814167 -1.4348345 0.10968719
87.733978 26.800846 -1.403101 0.11162187
88.777931 26.615404 -1.4104121 0.11730206
89.210876 26.65951 -1.413695 0.12224259
89.788429 26.796324 -1.3970743 0.12206116
90.138123 26.746746 -1.3823341 0.12358239
90.720856 26.684881 -1.3671159 0.11894657
91.193489 26.811575 -1.3538803 0.11889308
91.583344 26.567593 -1.3337772 0.12412667
92.006363 26.804958 -1.3269131 0.12253566
93.989014 26.930632 -1.1251476 0.12153082
94.035042 26.940453 -1.2300994 0.12468791
96.415001 26.688028 -1.2263246 0.12255341
96.910629 26.539429 -1.3794708 0.10593496
97.08889 26.641659 -1.4147327 0.092654265
97.775604 26.643909 -1.3060452 0.11996075
102.89933 26.538313 -1.3659827 0.090520017
103.2971 26.769356 -1.3759294 0.08814048
103.73061 26.788115 -1.3152299 0.095760584
104.28902 26.676161 -1.3450664 0.094141684
104.68449 26.795317 -1.3230191 0.095261656
105.21288 26.925007 -1.2779896 0.099017143
105.698 26.791384 -1.2427082 0.10575327
106.20111 26.744801 -1.2202969 0.10921302
106.8114 26.775654 -1.1916287 0.10746029
107.15346 26.818279 -1.153767 0.11612976
107.91708 26.588745 -1.0934808 0.12575957
108.29291 26.639551 -1.1426833 0.11030998
109.21428 26.50235 -1.1524868 0.097707488
109.74738 26.785192 -1.1273489 0.097707488
110.22427 26.651312 -1.1561022 0.093552008
110.77773 26.718126 -1.1517421 0.091322511
111.20234 26.788258 -1.1445664 0.090610728
112.41214 26.901892 -1.0905278 0.092180826
112.9362 26.613033 -1.0687181 0.093227535
113.16402 26.829844 -1.0703008 0.091214336
115.12191 26.641457 -1.0104415 0.092327341
77.897476 27.064161 -1.3812699 0.12358239
78.050613 27.011841 -1.1023449 0.10474143
81.234329 27.303051 -1.4520724 0.11033772
81.544891 27.264576 -1.4147592 0.11709303
85.93576 27.067589 -1.476408 0.10474143
86.227295 27.049141 -1.4413917 0.11730206
86.883743 27.100803 -1.418923 0.11820225
87.233284 27.090353 -1.4217683 0.11483181
87.554832 27.042168 -1.4566718 0.11311519
90.143486 27.003206 -1.3917388 0.12044223
90.774368 27.119219 -1.3627914 0.11887214
91.418945 27.083418 -1.350232 0.12186577
91.815681 27.057959 -1.3356546 0.12278688
92.830498 27.119076 -1.3568099 0.11296865
93.336929 27.245695 -1.3536019 0.11093801
93.885483 27.105816 -1.2448072 0.11985607
94.060898 27.03022 -1.1486347 0.11788824
95.429527 27.37467 -1.4316046 0.090673521
95.621643 27.117498 -1.3022361 0.11528539
96.430954 27.206078 -1.3052442 0.1052648
96.939217 27.24678 -1.3226243 0.10833192
97.064896 27.108519 -1.438705 0.086738914
97.70005 27.295748 -1.3725445 0.1051043
98.345551 27.121487 -1.2569187 0.11730206
98.684296 27.150955 -1.2658291 0.11751141
99.328171 27.27832 -1.2456169 0.11765796
99.731567 27.301764 -1.2765268 0.11880935
100.3239 27.490154 -1.1959317 0.11763702
100.59087 27.386267 -1.263489 0.11962579
101.1481 27.241806 -1.3142079 0.10377846
101.83378 27.36058 -1.2020516 0.12123773
102.0641 27.398573 -1.2074652 0.1212482
102.71452 27.332016 -1.237334 0.12255242
103.25645 27.350632 -1.2253774 0.12241355
103.72614 27.155848 -1.308525 0.096298084
104.19167 27.283436 -1.2998698 0.096662521
104.70731 27.250832 -1.2265489 0.10949355
105.08006 27.154804 -1.2686405 0.10152277
105.70972 27.181944 -1.2683866 0.097498134
106.32207 27.279804 -1.211591 0.10185249
106.64841 27.352259 -1.1834382 0.1037645
107.22363 27.172709 -1.1378773 0.11123633
107.58426 27.290913 -1.1295192 0.10316002
108.25739 27.233387 -1.0833738 0.10854103
109.74879 27.482162 -1.0194993 0.11156604
110.49599 27.30043 -1.0039313 0.11131482
110.62865 27.309364 -1.0148969 0.087993935
111.43166 27.276455 -1.0884476 0.089040667
111.63278 27.181656 -1.1140263 0.09139578
112.05866 27.322912 -1.0046661 0.089040637
112.55173 27.034582 -1.0942663 0.0859005
113.2532 27.12829 -1.0629255 0.088684775
113.68252 27.195091 -1.0421011 0.093750879
81.192772 27.510393 -1.4764948 0.10088952
81.54422 27.544006 -1.3299223 0.11730206
82.203156 27.667656 -1.4959307 0.10683489
90.261795 27.787886 -1.4368236 0.10474143
92.322128 27.508106 -1.3369478 0.11834879
93.666626 27.757696 -1.3146107 0.11461549
94.149208 27.823605 -1.3532989 0.10283642
95.914513 27.979282 -1.2991809 0.11453874
96.568733 27.770163 -1.1280538 0.11381027
97.258621 27.575487 -1.4052471 0.095042422
97.675163 27.612192 -1.3977633 0.09711504
98.374504 27.606144 -1.3354378 0.10683489
98.690704 27.756289 -1.3165576 0.10840496
99.215714 27.835548 -1.3146193 0.10603937
99.829506 27.636696 -1.2392559 0.11474808
100.33673 27.778488 -1.2662374 0.11263371
100.81662 27.773787 -1.2640712 0.11579479
101.37744 27.742672 -1.2393005 0.11691478
101.79375 27.559811 -1.305284 0.10330745
102.83934 27.584452 -1.1558256 0.11954205
103.28412 27.671394 -1.1452729 0.11896286
103.80521 27.729931 -1.1318334 0.11864187
104.35715 27.586424 -1.2021201 0.10174086
104.64315 27.590775 -1.2090528 0.10358308
105.20032 27.805685 -1.1506572 0.10602368
105.84451 27.605684 -1.0697658 0.12011775
106.0367 27.637337 -1.0680234 0.11964674
106.78061 27.961876 -1.1284516 0.1052648
107.21976 27.77206 -1.193609 0.098449789
107.72134 27.78606 -1.148406 0.10408201
108.8265 27.735146 -1.0413283 0.11127295
109.2243 27.863556 -1.0154674 0.10949423
109.65631 27.720064 -1.0992264 0.09715274
110.31995 27.757053 -1.0242006 0.095844328
110.79495 27.836018 -1.0154228 0.097540021
111.20635 27.668354 -1.005868 0.097791232
111.65122 27.634382 -1.0139229 0.087993935
81.089851 28.207031 -1.4848126 0.10055456
84.480309 28.152597 -1.4900416 0.11236155
84.761757 28.122747 -1.4936934 0.1126686
85.133469 28.080271 -1.4881088 0.11311519
90.807915 28.29907 -1.3052112 0.11058213
91.399376 28.498409 -1.3244382 0.10892832
91.849091 28.307556 -1.2868512 0.11102176
92.325226 28.313349 -1.2735549 0.11102176
93.099236 28.481152 -1.2583574 0.10917954
93.796829 28.038328 -1.3121941 0.11386883
94.390755 28.070541 -1.2707791 0.11283781
94.788666 28.134089 -1.2525285 0.11218632
95.240318 28.197794 -1.2509987 0.11191931
95.753853 28.142914 -1.2614462 0.11275931
96.572044 28.297611 -1.1924977 0.1100869
97.785179 28.049019 -1.3918283 0.093269385
98.161743 28.31801 -1.3692913 0.096716605
98.851463 28.185329 -1.3298573 0.09917289
99.21489 28.359589 -1.3368981 0.09509255
99.827362 28.221375 -1.3098868 0.10186452
100.09438 28.33812 -1.3026518 0.099781305
100.79586 28.263418 -1.2596834 0.1063464
101.07657 28.309219 -1.2461085 0.10756235
101.73359 28.309608 -1.2151871 0.10928768
102.27042 28.380478 -1.2053148 0.10977407
102.81848 28.374969 -1.1862657 0.11025068
103.32181 28.160803 -1.2512636 0.095990866
103.66766 28.342333 -1.2223574 0.099654377
104.34212 28.351089 -1.1484714 0.11137763
104.77713 28.469536 -1.1431592 0.10984942
105.26105 28.432381 -1.1312323 0.10982849
105.87741 28.244583 -1.0613562 0.11272443
106.15279 28.263916 -1.1869056 0.093727164
106.65623 28.356621 -1.1232858 0.10031317
107.25699 28.195919 -1.0521328 0.11091708
107.72293 28.243807 -1.0378306 0.11019485
108.40446 28.25613 -1.049859 0.10731637
108.82107 28.19343 -1.10664 0.10137448
109.26483 28.201153 -1.0972471 0.094274253
109.80273 28.192755 -1.0300088 0.10242471
110.26858 28.036526 -1.0706136 0.096446201
110.79234 28.12369 -1.0230809 0.099735796
111.23756 28.24555 -1.0194864 0.097539999
111.632 28.104763 -1.0104678 0.097623751
113.88538 28.10025 -1.0310295 0.087993935
83.553673 28.638786 -1.4400567 0.096367694
85.839966 28.73172 -1.4741064 0.10608125
86.18396 28.793728 -1.4673536 0.1052648
86.654549 28.677412 -1.3490834 0.10474143
87.276329 28.589125 -1.4531083 0.10683489
87.592346 28.674526 -1.383234 0.10578816
90.268608 28.539814 -1.4371921 0.096367694
91.703102 28.638062 -1.2963881 0.10746292
92.214996 28.704432 -1.2590828 0.10683489
93.148056 28.891047 -1.2932937 0.10474143
93.545807 28.874226 -1.2832068 0.10474143
94.484711 28.909706 -1.2383648 0.10398781
94.776108 28.687851 -1.2644645 0.10674068
96.164749 28.700768 -1.2768595 0.10726926
96.639175 28.788351 -1.2629972 0.097924121
98.293274 28.521626 -1.3765149 0.087993935
99.274246 28.929394 -1.2790985 0.10237586
99.73468 28.732132 -1.3180455 0.094077982
100.19338 28.811449 -1.3035837 0.093221307
100.67527 28.675695 -1.2902788 0.099546216
101.25854 28.791328 -1.2667036 0.09800338
101.66437 28.872154 -1.2491591 0.098269336
102.25035 28.7696 -1.2285058 0.10228514
103.22787 28.780863 -1.1943939 0.1040948
103.76231 28.654928 -1.1441315 0.10822701
104.24918 28.594173 -1.1978841 0.098087803
104.68483 28.790424 -1.1865309 0.096863836
105.26125 28.788208 -1.1153357 0.10748802
105.76025 28.76667 -1.098526 0.10798103
106.29639 28.703167 -1.0703448 0.10809501
106.73148 28.720558 -1.0637145 0.10348305
107.25909 28.635555 -1.072309 0.10625569
107.75377 28.665016 -1.053965 0.10660111
108.23468 28.719849 -1.0350193 0.10730281
108.66237 28.758476 -1.0887812 0.098680928
109.31493 28.738644 -1.0398293 0.097028866
109.66811 28.612423 -1.0628495 0.094944149
110.09269 28.647228 -1.0136027 0.091259681
85.092827 29.132576 -1.4981827 0.10055456
87.727921 29.159883 -1.3407788 0.10055456
93.779846 29.160158 -1.231755 0.10189436
94.386826 29.377548 -1.2808545 0.099549711
94.748779 29.294193 -1.2593358 0.1002859
95.269615 29.234125 -1.2547153 0.10078716
95.657104 29.293621 -1.255975 0.10039988
96.386642 29.105165 -1.2814009 0.10235493
96.722305 29.13553 -1.3537636 0.09059976
97.776817 29.254112 -1.3648541 0.098461129
98.045929 29.496962 -1.3644146 0.096367694
98.927673 29.345585 -1.2842624 0.096713111
99.366714 29.327343 -1.2749944 0.10080578
99.822784 29.276701 -1.2585714 0.10160129
100.41443 29.027176 -1.2954255 0.090673521
100.74729 29.089041 -1.274913 0.093702048
101.33456 29.154228 -1.2498777 0.095059291
101.90746 29.045305 -1.2487359 0.097720578
102.19826 29.205299 -1.1963432 0.098105244
102.76266 29.31366 -1.225677 0.09741877
103.19682 29.257648 -1.1921682 0.10073949
103.80686 29.131067 -1.1753969 0.10169897
104.19926 29.193672 -1.1465168 0.10249797
104.74579 29.303616 -1.1552906 0.10076914
105.38843 29.200142 -1.1440122 0.10002424
105.7752 29.256464 -1.1219085 0.1020593
106.29439 29.24869 -1.105592 0.10260774
106.63434 29.108824 -1.0889869 0.10436279
107.16389 29.267719 -1.0829754 0.10288298
107.53473 29.12322 -1.056269 0.10474143
108.24827 29.152729 -1.042876 0.10408968
108.7795 29.221001 -1.0462477 0.098113678
109.19611 29.148455 -1.0164498 0.1040905
109.71313 29.436207 -1.0197859 0.10026846
110.18962 29.403763 -1.0102259 0.098829567
110.54666 29.25877 -1.060371 0.095614053
87.651108 29.544783 -1.4764603 0.092180818
91.76104 29.702164 -1.3327022 0.094787143
92.060265 29.643808 -1.3150342 0.096367694
93.310944 29.951006 -1.2079915 0.092180826
94.751465 29.623644 -1.3082328 0.097414397
95.195023 29.824112 -1.226706 0.093925349
95.793732 29.739262 -1.2352751 0.094808079
96.424255 29.74131 -1.23195 0.091469035
96.73143 29.792904 -1.3179537 0.089357533
97.362572 29.652521 -1.4036783 0.092892587
97.738525 29.797468 -1.3396659 0.093597375
98.1978 29.927227 -1.3429813 0.093080997
98.846344 29.69883 -1.323952 0.092997245
99.128265 29.779068 -1.2992306 0.092186041
99.778625 29.893375 -1.2842164 0.092670143
100.28782 29.836926 -1.2440872 0.09289258
100.74121 29.845402 -1.2425519 0.095823392
101.38748 29.857147 -1.200207 0.09441033
101.81171 29.713488 -1.1937108 0.097121336
102.01482 29.878551 -1.1938522 0.095320962
102.90292 29.653378 -1.1970798 0.094452195
103.1292 29.617424 -1.1649575 0.095237225
103.73312 29.769745 -1.1830664 0.095111631
104.2151 29.580996 -1.1672285 0.096391246
104.58104 29.772655 -1.1602225 0.094294176
105.25406 29.87907 -1.1345114 0.093990117
105.68829 29.796093 -1.1040838 0.095858201
106.26203 29.838905 -1.0968693 0.095760308
106.83383 29.735394 -1.0781178 0.097233556
107.20267 29.835531 -1.0676856 0.096539319
107.74712 29.893997 -1.0518844 0.096258357
108.15913 29.828953 -1.0373225 0.097205758
108.76263 29.780512 -1.0276536 0.097632475
109.20143 29.801708 -1.0180272 0.097838603
109.70859 29.679432 -1.012851 0.095069766
110.27882 29.629749 -1.0245552 0.092180826
79.936928 30.46055 -1.4885727 0.087993935
80.349075 30.394609 -1.4803512 0.088642895
80.555038 30.452709 -1.4795816 0.087993935
81.280106 30.499174 -1.4718693 0.087240294
83.604172 30.065939 -1.4689319 0.087993935
90.946426 30.099352 -1.264883 0.092180826
91.753677 30.163284 -1.2937784 0.090087384
93.255463 30.186924 -1.2666115 0.091134101
94.323227 30.095007 -1.3112369 0.092180826
94.583023 30.198166 -1.2778379 0.090479895
95.263954 30.210428 -1.2718529 0.090687491
95.678772 30.208282 -1.2566395 0.090596773
96.344757 30.301414 -1.2586398 0.089817829
96.851334 30.283537 -1.3512921 0.088141128
97.307587 30.169981 -1.4268883 0.087868333
97.836517 30.242458 -1.3093596 0.089679152
98.721237 30.340595 -1.3165044 0.089040637
99.265244 30.127575 -1.2589663 0.090757281
99.628304 30.24408 -1.2692895 0.089700475
100.28914 30.117832 -1.2672248 0.089778408
100.71558 30.118279 -1.2319179 0.089990087
101.20712 30.193039 -1.2166435 0.089877874
101.74576 30.271492 -1.194217 0.089967452
102.28819 30.231873 -1.1827464 0.09149652
102.61739 30.395622 -1.1902571 0.089596286
103.19943 30.18322 -1.166347 0.090889856
103.61182 30.281794 -1.1599658 0.090483375
104.22423 30.283119 -1.1552646 0.088928133
104.68893 30.243587 -1.1468345 0.089350745
105.19729 30.261368 -1.1191097 0.091120146
105.79867 30.116043 -1.1123952 0.091622561
106.23944 30.311661 -1.1000458 0.089291863
106.88886 30.198891 -1.0740697 0.092180826
107.29698 30.237213 -1.062976 0.092180826
108.49667 30.032152 -1.0261543 0.095320962
108.6627 30.193766 -1.0238165 0.093576454
109.13146 30.198887 -1.0100743 0.093646213
79.658447 30.570009 -1.4707559 0.086455911
80.81839 30.559412 -1.4798712 0.08680068
81.078362 30.536053 -1.4756935 0.086947225
82.222801 30.53179 -1.4622246 0.086277321
96.370956 30.6015 -1.2932746 0.086695999
97.280212 30.535378 -1.36831 0.086319163
97.936493 30.632198 -1.2831624 0.086361051
99.260963 30.693724 -1.2254796 0.086765788
99.748108 30.694569 -1.1971226 0.086842552
100.1866 30.608906 -1.2093301 0.087596178
100.83688 30.770803 -1.1946113 0.0859005
101.44237 30.734589 -1.1544005 0.0859005
101.76552 30.534895 -1.1432377 0.087847389
102.82877 30.592493 -1.2054328 0.087721795
103.24702 30.642668 -1.1602238 0.087337993
103.85956 30.674814 -1.1256309 0.087522909
104.21401 30.738808 -1.0927849 0.086947218
104.69468 30.675467 -1.1525488 0.087993935
106.45283 30.893631 -1.0427431 0.0859005
106.92006 30.545664 -1.0325575 0.089333728
107.65128 30.635992 -1.0161364 0.087993935
108.72783 30.597317 -1.0338647 0.089040637
86.393112 25.068378 -0.92041224 0.10758853
86.618591 25.02813 -0.97251904 0.10813282
96.587517 25.312887 -0.99273545 0.13619305
112.27058 25.020061 -0.99734169 0.12998831
112.63737 25.172697 -0.99729848 0.12630385
115.48961 25.30654 -0.72010458 0.13845627
115.53523 25.161257 -0.87523252 0.11915581
116.19991 25.258554 -0.97419155 0.10738337
116.66621 25.236925 -0.88076949 0.10209323
117.45449 25.199778 -0.82955033 0.11333849
117.64439 25.180025 -0.81678087 0.11153343
118.3914 25.268291 -0.76928198 0.12486586
118.89783 25.219446 -0.71572608 0.13150209
119.26646 25.378677 -0.6966036 0.13195777
119.92606 25.19071 -0.67061979 0.13486131
120.19601 25.122429 -0.65182859 0.13450927
120.76554 25.362831 -0.64273655 0.13459249
121.35204 25.269367 -0.60900629 0.13788293
121.75909 25.33005 -0.59549618 0.13789503
122.21664 25.34153 -0.57465231 0.13890806
122.86407 25.165434 -0.52842039 0.14300042
123.2577 25.13146 -0.54733878 0.14046711
123.67767 25.188568 -0.53187835 0.14013222
124.22631 25.310472 -0.50755459 0.12285456
124.54771 25.449903 -0.50762612 0.13945064
96.603882 25.748537 -0.99542165 0.12706795
114.45132 25.86256 -0.95672965 0.091636516
114.78529 25.743692 -0.95740461 0.090522803
115.48502 25.854759 -0.80841476 0.12846255
115.54442 25.734388 -0.88280845 0.11692102
116.3814 25.659779 -0.95180035 0.10876683
116.65688 25.860701 -0.93310797 0.10505545
117.35388 25.937872 -0.82591867 0.10594168
117.93123 25.836742 -0.74462748 0.12109968
118.35394 25.668095 -0.75137997 0.12609465
118.70858 25.692419 -0.73485488 0.12646145
119.22652 25.772144 -0.70964098 0.12694132
119.6656 25.573423 -0.66080016 0.13483168
120.25598 25.9217 -0.64489454 0.12367705
120.76782 25.766651 -0.61496723 0.12742412
121.37114 25.820393 -0.59064305 0.1288247
121.85566 25.85409 -0.57071859 0.12958013
122.15979 25.921133 -0.55973095 0.12978673
122.78905 25.719034 -0.5364123 0.13820225
123.18362 25.700438 -0.53252751 0.13853009
123.81439 25.680454 -0.50457144 0.13944331
124.23308 25.696716 -0.51391309 0.13664195
124.70329 25.928637 -0.51327723 0.12334862
113.27829 26.488373 -0.97153616 0.092180826
113.85391 26.46125 -0.91514158 0.11254473
114.22118 26.407591 -0.8835088 0.11566003
114.65936 26.30159 -0.87530017 0.11560639
115.44809 26.269415 -0.91575783 0.10748924
115.54726 26.326183 -0.93404984 0.10567608
116.15392 26.214975 -0.9113782 0.095851302
116.62213 26.088181 -0.95236123 0.099957928
117.36448 26.329689 -0.82892269 0.099884667
117.93335 26.374828 -0.71810877 0.13217181
118.41589 26.383844 -0.77333653 0.11801384
118.78785 26.215219 -0.75793618 0.11991602
119.16528 26.174561 -0.71397173 0.11968388
119.66624 26.064615 -0.67331779 0.1209486
120.39013 26.244577 -0.6448136 0.12101215
120.82085 26.0959 -0.62323684 0.12391733
121.27226 26.167944 -0.60653877 0.12446813
121.73714 26.165176 -0.58443177 0.12617144
122.36176 26.369951 -0.55960786 0.1260546
122.88007 26.327385 -0.56495094 0.1298729
123.21629 26.300522 -0.56030697 0.1313535
123.80283 26.309004 -0.52444118 0.13108969
124.167 26.205719 -0.52426201 0.13493927
124.7348 26.205353 -0.51233822 0.13124856
75.138245 26.84973 -0.70018071 0.29790294
75.672325 26.831594 -0.65340102 0.29990056
76.231842 26.884514 -0.63346875 0.29967692
76.641937 26.848297 -0.61541426 0.29836574
77.1856 26.889521 -0.59706634 0.29816243
77.883575 26.826962 -0.59980488 0.29977196
78.042221 26.824068 -0.72412634 0.29620466
79.423058 26.850964 -0.58612198 0.29936942
79.744522 26.819435 -0.76487476 0.29562861
81.221771 26.915062 -0.6798445 0.29667836
81.797165 26.887188 -0.5320906 0.30774242
82.146927 26.882658 -0.52286482 0.30788219
82.709244 26.883316 -0.50914347 0.30807549
83.325623 26.90815 -0.53585458 0.30509076
83.74572 26.90094 -0.54130065 0.30283093
84.427811 26.943771 -0.53059012 0.30165231
84.793327 26.910927 -0.52735275 0.30101287
85.179558 26.906538 -0.51790619 0.30159348
85.724464 26.900545 -0.52153105 0.30325913
86.386765 26.931986 -0.51007485 0.30319199
86.685585 26.898901 -0.50779247 0.30406424
87.251465 26.907364 -0.50708246 0.3050333
93.834778 26.974287 -0.53171879 0.29601854
94.013184 26.952026 -0.53837478 0.30346376
111.31676 26.832207 -0.92853445 0.12094464
111.78664 26.775965 -0.92423934 0.1197172
112.22924 26.695122 -0.91634387 0.1189271
112.71866 26.653885 -0.92040974 0.11547729
113.25014 26.590393 -0.90914053 0.11474808
113.65899 26.567385 -0.92179519 0.10728846
114.13279 26.611885 -0.93083084 0.10517059
114.74661 26.970917 -0.95438224 0.097665623
115.3563 26.848991 -0.91565585 0.093979456
115.65643 26.693613 -0.96108896 0.095420085
116.21664 26.878605 -0.82323778 0.1055788
117.81886 26.863785 -0.75360984 0.1220137
118.40053 26.567848 -0.74480921 0.11251497
118.77287 26.893963 -0.74310184 0.11011384
119.18935 26.777439 -0.72475785 0.11554977
119.94659 26.771061 -0.59203428 0.12851608
120.23057 26.868587 -0.58941793 0.12703562
120.73336 26.731817 -0.56890535 0.129135
121.22008 26.835098 -0.55137146 0.12882559
121.54149 26.893744 -0.53810489 0.12862933
122.34326 26.743769 -0.57568979 0.12184811
122.7878 26.848465 -0.56053424 0.12189612
123.08215 26.866943 -0.54211497 0.12278751
123.6041 26.503115 -0.53064555 0.12902534
124.28568 26.791245 -0.51890808 0.11430846
124.70867 26.718246 -0.52542377 0.11581574
81.454903 27.042526 -0.97065878 0.10924233
81.524536 27.160122 -0.96987176 0.10566255
108.33362 27.236593 -0.9963994 0.12220073
108.74008 27.217258 -0.99012315 0.12165642
109.19269 27.220179 -0.98048329 0.12101444
109.729 27.059828 -0.96390444 0.12183785
110.19586 27.057476 -0.95770061 0.12079114
111.25492 27.269917 -0.97078359 0.11125412
111.73906 27.132364 -0.96119386 0.10971127
112.19193 27.193928 -0.96700215 0.10598965
112.79544 27.237776 -0.93862414 0.10482867
113.22952 27.38377 -0.87887621 0.10989966
113.7237 27.385738 -0.87442625 0.10696049
114.15556 27.225605 -0.89824742 0.10221885
114.9578 27.259903 -0.93655336 0.090432785
115.28493 27.039709 -0.76060104 0.11332712
115.77985 27.304712 -0.9708668 0.090077795
117.49966 27.26507 -0.79142523 0.1084259
117.91148 27.149929 -0.78261399 0.11878287
118.26673 27.238714 -0.74401534 0.11463746
118.9114 27.322205 -0.74084812 0.10527181
119.29323 27.281464 -0.72596878 0.10682635
119.60158 27.120777 -0.69462544 0.11102598
120.17698 27.285242 -0.55041081 0.1228721
120.7823 27.270931 -0.5253064 0.12404857
121.18412 27.268885 -0.51196885 0.12445815
121.77524 27.16293 -0.52774215 0.12630385
122.26238 27.165476 -0.53534669 0.12574124
122.71316 27.090937 -0.52090257 0.12749013
123.24635 27.256393 -0.55181873 0.11889935
123.68118 27.424997 -0.53907812 0.11814234
124.21057 27.330305 -0.52047378 0.12017206
124.68333 27.232956 -0.50947171 0.12337303
109.41705 27.959625 -0.95917702 0.11286399
109.8354 27.711182 -0.99605298 0.11104269
110.00909 27.925468 -0.96076119 0.11135669
110.77756 27.850441 -0.93206048 0.11138462
111.22125 27.776663 -0.91558284 0.11163147
111.8291 27.681522 -0.93686694 0.10579601
112.15457 27.662655 -0.98563713 0.099324673
112.96686 27.818165 -0.98880196 0.095572188
113.30563 27.718767 -0.96790862 0.094040476
113.7187 27.699471 -0.95551097 0.092034265
114.29427 27.959743 -0.91223359 0.097372547
115.22301 27.711035 -0.81835914 0.10107793
115.63638 27.669792 -0.9171676 0.087589227
116.57329 27.725758 -0.85456592 0.091134086
117.43434 27.818333 -0.79300499 0.10461148
117.66811 27.820831 -0.77831268 0.11744749
118.36038 27.864389 -0.73481214 0.10579922
118.87447 27.75141 -0.65584505 0.1160616
119.35782 27.847033 -0.64729661 0.11544403
119.74306 27.663122 -0.61152077 0.11819169
120.43382 27.555464 -0.54629087 0.12033756
120.64509 27.541834 -0.52931064 0.12177156
121.38242 27.720766 -0.51035631 0.12026081
121.68536 27.746761 -0.5074966 0.12015264
122.10126 27.52582 -0.5052799 0.12339399
123.37856 27.523014 -0.53897005 0.11956298
123.89029 27.502378 -0.53828561 0.11767888
124.45589 27.569056 -0.51532984 0.11864188
124.73267 27.710724 -0.51053822 0.11736766
107.08383 28.04104 -0.9992854 0.11520863
108.27281 28.14073 -0.9818998 0.11288492
108.74686 28.09708 -0.96934712 0.1128221
109.24072 28.261204 -0.97183478 0.11136193
110.13708 28.330889 -0.99679047 0.097037576
110.82449 28.357048 -0.96257734 0.10218744
111.34386 28.393074 -0.94126928 0.10713425
111.62909 28.274284 -0.93599343 0.10336209
112.34512 28.331985 -0.93744105 0.097665623
112.76827 28.372021 -0.92279494 0.10231306
113.18694 28.335293 -0.9076792 0.10595565
113.79797 28.168907 -0.89202195 0.10619289
114.1238 28.448959 -0.89401621 0.10057782
114.77702 28.430441 -0.87933099 0.097965688
115.41788 28.187275 -0.79380304 0.10361229
115.77191 28.156586 -0.96378118 0.088763766
116.14091 28.455425 -0.9083339 0.099123172
116.77128 28.461477 -0.83709675 0.10984419
117.36505 28.43655 -0.80402118 0.11060403
117.87822 28.413116 -0.80849373 0.0923298
118.36626 28.233612 -0.77517456 0.096381046
118.90715 28.116524 -0.66381532 0.11251222
119.11196 28.155508 -0.65806437 0.11168691
119.65593 28.074181 -0.59286153 0.11418284
121.46146 28.022678 -0.50599909 0.11763702
121.64857 28.088116 -0.50858694 0.11661124
108.82142 28.560999 -0.9920674 0.10990524
109.73596 28.61734 -0.97939724 0.10857244
110.2643 28.685858 -0.97954577 0.10430881
110.7521 28.862148 -0.96928585 0.10513134
111.21771 28.862497 -0.95889378 0.10426275
111.74972 28.848015 -0.94482803 0.10442883
112.30898 28.939222 -0.92970556 0.10164838
112.82423 28.838913 -0.91930836 0.10253914
113.22339 28.719347 -0.90583754 0.10394593
113.75533 28.678293 -0.89268684 0.10391628
114.24701 28.831572 -0.88194847 0.099926539
114.76413 28.863386 -0.88612384 0.10044182
115.26892 28.807144 -0.85304904 0.10184638
115.90223 28.599512 -0.94284296 0.090491511
116.11302 28.677757 -0.94864309 0.087669365
116.75427 28.763512 -0.91028607 0.090483531
117.31699 28.620281 -0.78705776 0.10857766
117.90899 28.694818 -0.82033944 0.088737853
118.2848 28.765295 -0.71988624 0.10363862
118.65903 28.667759 -0.68412787 0.10591644
119.19321 28.734161 -0.62415969 0.10628082
119.63634 28.753464 -0.60115165 0.10770714
108.85117 29.295111 -0.98821992 0.094546393
109.28645 29.233597 -0.97751987 0.098126173
109.82003 29.110474 -0.9944846 0.10447283
110.16376 29.209234 -0.98223448 0.10300911
110.74721 29.349438 -0.98666823 0.10159175
111.25121 29.165325 -0.95303404 0.10227031
111.5577 29.352657 -0.9435147 0.10051073
112.23065 29.195126 -0.94688535 0.10160629
112.77616 29.333158 -0.92132521 0.10005778
113.29247 29.39625 -0.90299946 0.099010319
113.88388 29.283489 -0.89612627 0.09724693
114.22629 29.346329 -0.87340426 0.098765984
114.84487 29.213419 -0.85920089 0.098953091
115.33849 29.26741 -0.9097361 0.09114325
115.60178 29.175024 -0.94914412 0.086554691
116.23303 29.155701 -0.93091601 0.087533832
116.69048 29.283245 -0.88121557 0.093753509
117.15804 29.240547 -0.82990861 0.10407154
118.21632 29.246233 -0.67829865 0.10021438
118.70844 29.140223 -0.65571564 0.10150053
107.39397 29.7579 -0.99338543 0.097665623
107.70174 29.868587 -0.98777854 0.096367694
109.22136 29.883038 -0.94554746 0.095027879
109.77029 29.829571 -0.99125516 0.096992224
110.28786 29.770947 -0.9688431 0.097112954
110.66992 29.753181 -0.97797918 0.094774932
111.31823 29.838612 -0.9451468 0.096922792
111.73875 29.755985 -0.93241256 0.097353347
112.31656 29.773167 -0.92557788 0.097030059
112.64943 29.642719 -0.91291165 0.097515158
113.27024 29.756281 -0.90870035 0.096188225
113.77298 29.619112 -0.89477402 0.096642978
114.13835 29.537205 -0.88242912 0.096174039
115.45691 29.750097 -0.88779879 0.091542318
115.82837 29.618315 -0.9724552 0.086282469
116.20921 29.685938 -0.96324855 0.086448833
116.74774 29.821625 -0.94126642 0.086779743
117.32397 29.915836 -0.85953832 0.087993935
117.65996 29.894413 -0.77231061 0.097385615
118.40507 29.618906 -0.68194348 0.095760584
109.44476 30.024851 -0.99628174 0.095530316
109.69299 30.030743 -0.99009907 0.095488444
110.37006 30.265886 -0.98418647 0.092850707
110.85963 30.264229 -0.95926547 0.091120131
111.24445 30.274704 -0.95161551 0.090715408
111.58457 30.094229 -0.95294809 0.094274238
112.39801 30.391541 -0.94972014 0.089417472
112.69344 30.421173 -0.95424527 0.090087369
115.48552 30.160828 -0.89126182 0.089731485
115.8354 30.054394 -0.88001418 0.089391559
116.37047 30.086535 -0.86392361 0.08953549
116.75844 30.270779 -0.85049307 0.088145502
117.10549 30.316071 -0.83267975 0.090019479
117.57351 30.18005 -0.80591762 0.094671339
118.39262 30.330303 -0.69498992 0.086193584
108.47451 30.571892 -0.99348873 0.087993935
108.6813 30.55217 -0.98787332 0.087993935
111.62875 30.595543 -0.99816185 0.086947225
112.69398 30.759239 -0.96800166 0.086277321
113.25188 30.725441 -0.94584638 0.087324038
113.80344 30.681664 -0.92435127 0.088328883
114.18619 30.665012 -0.91241688 0.088663831
114.71944 30.780298 -0.90124136 0.08730077
115.38304 30.562508 -0.8315295 0.086664602
115.85205 30.667994 -0.86270911 0.087548576
116.24252 30.692551 -0.84409845 0.087581798
116.77734 30.573156 -0.82894075 0.089785054
117.1227 30.578606 -0.8399452 0.086211219
117.59843 30.770733 -0.8057549 0.08771655
118.16557 30.612068 -0.69047558 0.089752413
117.45516 31.007551 -0.76760304 0.085774876
117.6651 31.018997 -0.80233079 0.085879549
86.383087 25.26985 -0.14542882 0.30358681
86.820648 25.408237 -0.13507545 0.30316707
87.270203 25.204918 -0.41566512 0.3108291
87.679764 25.192196 -0.37589672 0.31047788
96.741272 25.24172 -0.39952296 0.31245065
121.35433 25.337673 -0.49186236 0.13952915
121.89034 25.26557 -0.49547982 0.14658928
122.2073 25.398979 -0.48949829 0.1455313
122.77589 25.308542 -0.47347036 0.14551555
123.25243 25.244373 -0.49365357 0.14176853
123.66444 25.210835 -0.48413515 0.14148796
124.14568 25.410597 -0.48771796 0.14348854
124.71564 25.066334 -0.44811237 0.13980129
86.349625 25.891281 -0.19636068 0.30327004
86.856522 25.875032 -0.30565804 0.30683601
87.16571 25.695724 -0.32883483 0.30797318
96.745399 25.724197 -0.261576 0.31220043
121.34853 25.881023 -0.48572606 0.13839346
121.91373 25.923033 -0.48902541 0.139926
122.20909 25.840549 -0.49120474 0.14113894
122.70465 25.811365 -0.48672017 0.13955356
123.29531 25.684681 -0.46823511 0.14132269
123.88224 25.855612 -0.49581695 0.13847841
124.26768 25.75383 -0.48940897 0.1393822
124.57278 25.900642 -0.47954875 0.13744619
86.440903 26.085018 -0.23847353 0.30313218
86.531464 26.143776 -0.26843464 0.30448255
96.744125 26.242043 -0.29375696 0.30972928
121.25329 26.355064 -0.49177074 0.13505965
121.76881 26.3913 -0.47698534 0.13436797
122.22369 26.194998 -0.48294339 0.13653263
122.81801 26.20105 -0.4892621 0.13726091
123.34758 26.32618 -0.48726791 0.13531512
123.87576 26.079407 -0.49311399 0.13691038
124.28411 26.1106 -0.48822245 0.13624603
124.71683 26.193409 -0.48432034 0.13565038
79.467621 26.811771 -0.42024073 0.3085368
79.804352 26.780842 -0.48476875 0.30502719
81.243004 26.875809 -0.47549057 0.30387318
81.855072 26.874855 -0.47001207 0.3058705
82.291878 26.894331 -0.46412545 0.30404282
82.768219 26.890602 -0.46010306 0.30437526
83.300606 26.891312 -0.4385539 0.30453169
83.799019 26.906805 -0.44066325 0.30472115
84.229057 26.898787 -0.41266534 0.30535123
84.854698 26.887281 -0.46362224 0.30465525
85.222183 26.9193 -0.48212087 0.30136847
85.862389 26.882883 -0.47605386 0.30028531
86.269325 26.872156 -0.45912033 0.30013508
86.735283 26.883204 -0.44512513 0.30061218
87.256714 26.90798 -0.44671869 0.30086711
87.659698 26.916634 -0.43060833 0.30146098
88.165253 26.903303 -0.42238808 0.30203572
88.633575 26.89299 -0.40281504 0.3027688
89.145195 26.892134 -0.38830173 0.30336174
89.70919 26.898354 -0.37299281 0.30399406
90.205009 26.91745 -0.34930867 0.30475128
90.813171 26.913719 -0.3479366 0.30509278
91.244659 26.908888 -0.33931026 0.30541149
91.744965 26.904762 -0.32541108 0.30584967
92.133629 26.906654 -0.31085989 0.30620834
92.774651 26.937695 -0.2932362 0.30675381
93.239349 26.923851 -0.2833401 0.30759218
93.827721 26.903662 -0.25194156 0.30759537
94.035477 26.893681 -0.32556814 0.30841616
96.467896 26.780998 -0.39382932 0.29790908
96.628799 26.715744 -0.38901138 0.29575038
115.47813 26.554577 -0.069354504 0.29738683
115.524 26.77224 -0.13258229 0.29554385
121.48621 26.613262 -0.49120301 0.13224921
121.57195 26.548744 -0.48673451 0.13287726
122.36151 26.601456 -0.49060154 0.13175029
122.79752 26.755972 -0.49059743 0.13158831
123.14102 26.801367 -0.49379915 0.13002862
123.83099 26.646255 -0.45484641 0.13232599
124.36136 26.65988 -0.47352681 0.13192785
124.85049 26.655106 -0.4736982 0.13187557
79.40387 27.032112 -0.15529591 0.30600134
81.288757 27.046953 -0.47245279 0.30740452
96.471649 27.108837 -0.11949885 0.30461213
96.670792 27.033594 -0.34351563 0.30318454
97.572739 27.454903 -0.35695183 0.29657528
115.26308 27.04796 -0.061805837 0.29723501
115.52226 27.140875 -0.047641478 0.29590687
121.2571 27.227295 -0.49595639 0.12614684
122.363 27.363714 -0.47766665 0.12478612
122.76072 27.349043 -0.46467742 0.12519953
123.08229 27.445122 -0.46290845 0.12437724
123.69731 27.403934 -0.48318478 0.12417577
124.24566 27.318001 -0.48382881 0.12154263
124.80614 27.206585 -0.44989318 0.12671512
97.456314 27.52747 -0.3823272 0.30343235
97.607109 27.519957 -0.37438446 0.29760182
121.35791 27.602139 -0.49834031 0.1220751
121.77326 27.739311 -0.49187079 0.12062017
122.22746 27.792831 -0.48275301 0.11989863
122.6537 27.686117 -0.46798086 0.12116726
123.3281 27.897917 -0.45520481 0.11957398
123.77265 27.824249 -0.43859425 0.12045532
124.46023 27.613581 -0.46739584 0.12030248
124.71397 27.684286 -0.47575706 0.11859924
96.57309 28.076214 -0.42693269 0.29728168
121.75014 28.058697 -0.49769723 0.11713459
122.22329 28.08041 -0.48346108 0.11663218
122.92511 28.01392 -0.46057069 0.11675777
123.18701 28.037594 -0.45364654 0.11641933
123.6102 28.149279 -0.4474003 0.11593784
124.27415 28.321697 -0.43499222 0.11529237
124.74131 28.3482 -0.41560352 0.11136369
96.704185 28.996513 -0.35903803 0.30042353
124.23457 28.606916 -0.44050932 0.1107845
96.675705 29.057104 -0.3917481 0.29954395
96.407211 29.79739 -0.29338998 0.29544613
96.636688 29.874905 -0.33964199 0.29720756
96.613533 30.050163 -0.19575515 0.29657704
115.48953 25.292366 0.17995393 0.31072247
115.53396 25.203262 0.11082584 0.3125231
115.45893 25.716328 0.1661182 0.31091502
115.50439 25.637543 0.12258594 0.31310448
115.47721 26.1908 0.12467508 0.30944934
79.458466 26.753992 0.3295759 0.50057244
79.673599 26.719999 0.2758019 0.50417054
115.44633 26.600815 0.06029857 0.29907629
115.55211 26.584042 0.12704647 0.30151868
114.99551 27.091095 0.12711687 0.30565929
115.32037 27.085808 0.064796343 0.29700702
115.5481 27.3396 0.078783616 0.29645631
115.48405 27.513849 0.20246291 0.30321595
115.57325 27.530922 0.080450006 0.29875311
115.52945 28.287458 0.11901487 0.30312866
115.52368 28.599846 0.11919239 0.30299124
115.51895 29.253643 0.16512302 0.29982328
115.48937 29.852676 0.17345616 0.29730654
115.51109 29.588284 0.18463328 0.29850379
115.46156 30.149971 0.17059655 0.29663289
115.43314 30.609447 0.1867165 0.29559621
96.705551 25.398794 0.70829821 0.48812765
115.47974 25.312637 0.88381302 0.49336338
115.51349 25.429352 0.83063698 0.50126582
96.715981 25.644161 0.72428787 0.48863378
115.45813 25.848501 0.95390415 0.48750639
115.51865 25.608622 0.83743548 0.50178242
96.724998 26.365498 0.74973202 0.49061614
115.43953 26.429846 0.96710622 0.48944008
115.51822 26.379152 0.86600697 0.50405824
79.432343 26.832581 0.60932547 0.49175203
79.640198 26.764343 0.52123094 0.49354273
96.651009 26.719017 0.65501612 0.50420916
98.403885 26.889893 0.70162082 0.50196493
98.710548 26.91787 0.69861794 0.50089371
115.42897 26.794151 0.96919066 0.50257564
115.53909 26.655539 0.95735872 0.50010699
96.594589 27.067451 0.84642124 0.49558622
97.930962 27.178829 0.67791271 0.50342906
98.029564 27.280338 0.70900762 0.50115788
98.754395 27.036724 0.70963466 0.5036279
115.49707 27.029417 0.9539004 0.50450498
115.50923 27.112564 0.98217469 0.49663746
98.169617 27.525879 0.93713093 0.50246656
96.633041 28.444706 0.8766948 0.49847347
99.173454 28.263124 0.97408772 0.50463068
96.622192 28.710747 0.84249765 0.49917156
99.088066 28.575653 0.80699152 0.50337934
96.605133 29.28693 0.90132713 0.50144035
96.594803 29.825478 0.8595286 0.50253981
96.597473 30.083008 0.64446139 0.50405824
96.470711 25.030838 1.421173 0.67832267
96.621529 25.222935 1.4066145 0.66944647
97.955215 25.150768 1.4513309 0.6767168
98.002487 25.191029 1.4842273 0.67899251
115.62723 25.352818 1.0247592 0.49288869
96.539452 25.895519 1.48072 0.68640852
98.417221 25.636623 1.4862051 0.67941481
98.600197 25.768433 1.4788902 0.67364383
115.6258 25.709373 1.0362201 0.49403358
96.520973 26.068556 1.4513339 0.67916
99.42849 26.093193 1.4838161 0.67053503
115.62426 26.31176 1.0556391 0.49597427
79.4683 26.74276 1.3894169 0.69522882
79.596252 26.68829 1.3506932 0.71150613
96.6073 26.571125 1.4817431 0.68129009
115.44135 26.979176 1.0894065 0.5020923
115.59599 26.577358 1.0881722 0.49724132
115.46901 27.096172 1.1244993 0.50167143
115.57099 27.476799 1.0101316 0.49300039
99.131393 28.371239 1.0288676 0.50435138
99.020462 28.612373 1.0094979 0.5037607
96.71817 25.200571 1.5610619 0.6614809
97.884033 25.040813 1.6579514 0.6663965
98.177277 25.302982 1.6654766 0.70984036
98.831741 25.278122 1.6580321 0.71066278
99.108917 25.387545 1.6655284 0.71157038
99.65921 25.230507 1.6351216 0.70875925
100.04403 25.110348 1.7174668 0.69170928
96.62719 25.790348 1.6368583 0.68203849
98.43924 25.706202 1.6828234 0.69503212
98.713394 25.698921 1.6623775 0.70572913
99.15654 25.53199 1.6599901 0.69526815
99.856644 25.613102 1.6402354 0.69609523
100.22629 25.809559 1.6696234 0.70786172
100.74825 25.908691 1.9778427 0.70090622
96.497208 26.355516 1.5093763 0.69088328
96.605988 26.336739 1.5925193 0.69146943
97.339767 26.013887 1.8479339 0.69113445
98.202202 26.482946 1.9195286 0.69938266
98.91597 26.36179 1.6431522 0.69491613
99.36412 26.131954 1.6341212 0.68868667
99.801964 26.022511 1.5847585 0.68417686
100.271 26.190907 1.715282 0.71128625
79.436447 26.836567 1.5267054 0.67615312
79.646446 26.723732 1.5291669 0.67482382
96.6045 26.53957 1.671916 0.70836663
97.966606 26.631529 1.5807173 0.68286407
98.098633 26.684538 1.5847244 0.68273199
98.562462 26.925562 1.9396234 0.70453453
99.315491 26.931227 1.7072663 0.70726597
99.912994 26.674578 1.8949625 0.69299507
100.08789 26.652004 1.8263006 0.70836347
115.32299 26.948071 1.9798059 0.69475156
96.631187 27.387028 1.7951484 0.68568528
97.911964 27.451176 1.942132 0.69978714
98.426155 27.167461 1.587991 0.68711704
98.543762 27.186218 1.7663968 0.69189423
99.340286 27.212921 1.7196139 0.7021662
99.94043 27.441383 1.7562096 0.70267195
100.17184 27.408855 1.7224317 0.70052028
100.60912 27.380154 1.6521418 0.68093944
115.44541 27.062601 1.9842798 0.68824613
96.478043 27.731392 1.6043057 0.70595604
96.638489 27.698027 1.7558854 0.68778968
97.781235 27.652138 1.906775 0.69725537
98.384018 27.836573 1.7186658 0.70849526
98.571671 27.778378 1.6309848 0.69963753
99.494911 27.611973 1.6300939 0.68943882
99.912949 27.72224 1.7987883 0.71312475
100.42211 27.561874 1.6809995 0.68934983
100.64529 27.536415 1.713895 0.68234205
96.430878 28.306904 1.6386092 0.71053457
96.626869 28.301369 1.8027263 0.69496381
97.338654 28.466642 1.8928087 0.70019519
98.312302 28.287941 1.720612 0.70798081
98.671577 28.206211 1.9989655 0.71303189
99.80558 28.159479 1.6491914 0.6907891
100.27495 28.361444 1.5503067 0.69021338
96.404274 28.804621 1.6650249 0.71296644
96.60154 28.825455 1.8368912 0.70007348
97.347794 28.528572 1.9062276 0.69909477
97.693398 28.769157 1.977264 0.70951486
98.168304 28.652508 1.820255 0.70565248
100.34569 28.910698 1.8204989 0.71034729
100.80664 28.785477 1.7235982 0.69855112
101.14593 28.744337 1.662961 0.69398159
96.401985 29.184204 1.6719 0.71251374
96.608788 29.277065 1.7293639 0.70194268
97.052895 29.226711 1.9657651 0.70997542
97.749496 29.23679 1.942183 0.70682287
98.06752 29.033634 1.9939634 0.7109803
99.464073 29.208782 1.6958222 0.70248091
99.753105 29.235695 1.7350645 0.70420802
100.33877 29.063553 1.8006573 0.70980799
100.5462 29.053856 1.8451706 0.70990217
96.392014 29.542719 1.7326698 0.7121945
96.598862 29.845774 1.7961303 0.7086404
96.572372 30.013922 1.9052652 0.71022666
97.062393 25.414669 2.3965018 0.83776581
98.304787 25.228188 2.2841425 0.83250165
98.55835 25.107542 2.3496246 0.82654023
99.748016 25.124336 2.2992373 0.82706308
100.27052 25.264677 2.381341 0.83122045
100.80899 25.378792 2.4225056 0.83462822
96.862213 25.798363 2.4014416 0.84064198
97.151306 25.660795 2.4252238 0.840119
99.986099 25.72436 2.3665388 0.83790529
100.84425 25.892174 2.0100822 0.70683527
79.451569 26.692373 2.3371291 0.89889765
79.644714 26.700077 2.3645456 0.92201054
96.657204 26.767715 2.44522 0.86128044
98.827599 26.578947 2.45259 0.85314012
115.41356 26.967323 2.066925 0.7073791
115.45673 27.071362 2.0928912 0.70952696
115.50684 27.029469 2.038554 0.69507015
98.692337 27.856789 2.0105329 0.70667303
97.482445 28.475176 2.0101297 0.70901245
98.361061 28.194683 2.0281882 0.70943117
98.64505 28.212154 2.0418878 0.71068722
96.653801 28.927092 2.0077808 0.71077096
97.880737 28.88694 2.0354128 0.71188045
98.03231 28.898949 2.0381191 0.71304756
96.631363 29.087114 2.0189447 0.71190143
97.094604 29.199865 2.0153413 0.71194327
97.707779 29.013327 2.0150359 0.71060348
98.042358 29.043089 2.0314503 0.71194327
100.70216 29.044502 2.0930698 0.71441352
96.59304 29.63826 2.0133162 0.71374363
98.339554 29.638065 2.0072138 0.71391112
97.416168 25.233952 2.7026963 0.88217926
97.659393 25.472595 2.6610579 0.88347578
98.096802 25.435715 2.7930946 0.90252692
98.636154 25.082455 2.7913604 0.90076202
99.3853 25.154139 2.6367016 0.8855468
100.33851 25.325274 2.6317582 0.88834667
100.67871 25.360653 2.5995803 0.87705684
101.14872 25.348557 2.5197642 0.84418046
96.7715 25.686974 2.5905881 0.88494271
97.165001 25.627836 2.5663524 0.84791857
97.827744 25.660839 2.7664711 0.89299369
98.169586 25.833397 2.660362 0.86057413
98.550804 25.785599 2.7508173 0.89330149
99.088501 25.763115 2.6441898 0.85718411
100.39731 25.646362 2.6426752 0.89079142
96.969818 26.087349 2.7198956 0.88388872
97.075737 26.034184 2.7136605 0.89459139
97.927963 26.231056 2.718956 0.86755979
98.200775 26.293636 2.7179415 0.87079787
98.704071 26.229128 2.7281911 0.87040234
79.410614 26.750191 2.5676298 0.86468172
79.553635 26.703537 2.5592604 0.86448514
96.645004 26.778393 2.6094265 0.86133301
100.64912 26.76495 2.8330941 0.90499783
115.35675 26.977743 2.952635 0.87999678
98.836884 27.371319 2.8470955 0.88862997
100.6651 27.064106 2.7699208 0.90485251
101.01722 27.058704 2.9528828 0.91714728
115.39511 27.044914 2.9812951 0.88319749
98.302979 27.652859 2.8762498 0.89133179
99.858154 27.66202 2.8440788 0.92025006
96.529572 28.978981 2.974205 0.91209221
97.467026 28.831383 2.9715681 0.91252804
96.49485 29.00116 2.9972663 0.9154042
96.716217 29.047108 2.9071167 0.90500689
100.26494 29.385485 2.7773497 0.90145928
100.35545 29.59268 2.8012221 0.90501523
97.079407 25.433216 3.3868051 1
97.914009 25.111698 3.1708972 1
98.053909 25.145321 3.1834579 1
98.912018 25.04285 3.439863 1
99.089928 25.099113 3.4693923 1
99.944107 25.068771 3.4210067 1
100.29425 25.078403 3.4366665 1
100.67272 25.173458 3.4333179 1
101.02995 25.190351 3.2271912 0.99993849
96.954926 25.587162 3.3417704 1
97.093338 25.566765 3.3394289 1
98.76886 25.985371 3.4835813 1
99.218628 25.8657 3.470413 1
99.655457 25.525204 3.3207054 1
100.81638 25.634815 3.33413 1
101.07054 25.548677 3.2253804 1
97.713013 26.115177 3.3612406 1
