# This PCD file was generated using the MATLABÂ® pcwrite function
# from Computer Vision ToolboxÂ®.
# .PCD v.7 - Point Cloud Data file format
VERSION .7
FIELDS x y z intensity
SIZE 4 4 4 4
TYPE F F F F
COUNT 1 1 1 1
WIDTH 1242
HEIGHT 1
VIEWPOINT 0 0 0 1 0 0 0
POINTS 1242
DATA ascii
-9.315622 -0.821106 0.751630 0.712918
-9.378388 -0.575535 0.733084 0.862667
-13.165157 -0.482775 0.692585 0.924459
-36.336906 -0.818263 1.904820 0.780964
nan nan nan 0.000000
-24.024752 0.126593 1.202370 0.675104
-23.385624 0.641073 1.208855 0.657951
-28.750809 1.427856 1.184458 0.880779
-31.366711 2.786805 1.458437 0.823081
-30.777342 3.357958 1.451581 0.813841
-29.990849 4.159562 1.520775 0.735419
-29.437550 4.786150 1.480876 0.738501
-29.403614 5.870370 1.315276 1.000000
-28.326370 6.379741 1.037041 1.000000
-28.298645 6.890974 1.363834 0.996773
-28.228682 7.748434 0.990714 1.000000
-27.946276 7.963737 0.989094 1.000000
-27.849667 8.854759 1.039890 1.000000
-27.471230 9.437166 1.029155 1.000000
-27.299013 10.461506 1.185520 1.000000
-20.531637 8.340034 1.055226 1.000000
-19.353802 8.232525 1.057365 0.999592
-19.035860 8.721113 1.034358 0.977828
-18.753704 9.138226 1.026375 0.998640
-17.784281 9.009342 0.998293 1.000000
-17.118889 9.566784 0.423289 1.000000
-17.092587 9.823711 0.499655 1.000000
-16.764194 10.628393 0.845887 1.000000
-16.662201 10.657471 0.671148 1.000000
-16.719641 11.295958 0.956451 1.000000
-15.910683 11.496750 0.871013 1.000000
-15.455696 11.699059 0.572697 1.000000
-15.283525 12.244494 0.901801 1.000000
-14.874268 12.380682 0.495506 1.000000
-15.152672 13.324507 0.988019 1.000000
-15.128336 13.944996 0.986980 1.000000
-10.599168 10.303058 0.773456 0.577399
-15.001224 15.096353 0.812849 1.000000
-15.225636 16.791672 1.184298 0.778326
-9.083769 10.295079 0.717933 0.545286
-12.012553 14.259314 0.969904 0.629064
-8.404506 10.813440 0.716257 0.562597
-8.348372 10.822066 0.713756 0.544019
-8.471935 12.044110 0.770135 0.574859
-12.181528 17.466227 1.110416 0.750454
-11.301117 17.498774 1.089088 0.769911
-12.097318 20.138443 1.189222 0.792775
-11.749518 19.981863 1.178122 0.777966
-11.504613 20.511889 1.194566 0.794491
-17.554766 33.864120 1.682269 1.000000
nan nan nan 0.000000
-20.442005 46.060730 2.389298 1.000000
-7.588387 18.396179 1.028046 0.639385
-18.944439 46.614365 2.132289 1.000000
-7.944067 21.568453 0.401503 0.480239
-10.390221 29.883127 1.569780 1.000000
-8.382756 27.540600 1.464864 0.803712
-8.182633 28.030592 1.459246 0.777350
-7.776696 28.829601 1.512727 0.744807
-7.178467 30.283369 1.626030 0.727104
-8.980257 45.997917 2.406082 1.000000
-8.609901 45.948921 2.390262 1.000000
-7.373626 46.310829 2.283545 0.988281
-6.277939 47.060883 2.344472 0.999827
-2.811931 27.071777 1.396944 0.693219
-2.432651 27.956202 1.446678 0.801915
-1.593946 29.957214 1.550933 0.828292
-1.254024 30.719919 1.596482 0.837987
-1.017788 55.548851 2.779004 1.000000
0.976863 57.022003 2.883943 1.000000
2.927791 57.599564 3.015138 1.000000
3.585496 45.677872 0.800219 0.559948
4.667620 45.409840 1.642199 1.000000
5.513580 44.659496 1.910942 1.000000
6.342114 44.347992 2.196543 1.000000
7.838753 43.975445 2.207729 1.000000
9.003102 43.811878 1.616329 1.000000
9.906530 43.435299 0.778036 0.555522
10.170820 43.585106 1.656542 1.000000
11.751747 41.626736 1.878563 1.000000
12.200460 41.452621 2.138418 1.000000
11.391792 34.390259 1.871754 0.810667
14.179389 41.037502 1.891271 1.000000
15.086950 40.778419 2.245821 1.000000
16.292669 40.558105 1.936113 1.000000
17.188530 40.429306 1.548651 1.000000
18.563751 40.086151 1.589817 1.000000
19.329674 40.042160 1.629480 1.000000
20.751266 39.965355 0.804565 0.560633
21.909435 39.704636 0.803028 0.561987
22.922070 39.459373 0.808927 0.566260
23.954494 39.195633 0.846364 0.561827
25.360331 38.896946 0.816453 0.572114
27.150841 38.603619 2.426770 0.993172
27.791962 38.541977 2.004416 1.000000
28.962317 38.277763 1.885027 1.000000
30.187847 37.958939 2.014156 1.000000
31.444262 37.621456 2.413494 0.983203
28.285583 30.705854 0.808542 0.533051
33.593262 36.338337 1.118227 0.551446
35.480080 35.873131 1.203285 0.552102
31.465513 29.510021 0.793874 0.548063
31.534834 29.444639 0.825685 0.536299
25.994804 22.394531 0.673229 0.498243
34.485886 28.779861 0.975798 0.526485
42.654778 34.261177 1.249714 0.560967
44.568443 33.815292 1.431303 0.551653
49.131104 35.467651 1.606106 0.564599
50.981857 35.148888 1.209891 0.578873
9.351989 6.081054 0.526070 0.505635
44.379166 27.118723 1.377244 0.539602
57.131187 33.392799 2.001690 0.561776
46.720291 24.879166 2.771965 0.954855
45.233391 23.135641 1.117322 0.562971
45.847954 21.474529 1.204775 0.512767
46.692242 21.325775 2.404549 0.735027
45.136345 18.562962 2.431215 0.750435
45.972321 18.343197 1.125633 0.502976
48.215858 17.794220 1.264071 0.500968
50.269196 17.331924 1.286019 0.501420
52.632381 16.734648 1.117437 0.510729
55.484570 16.090370 1.604551 0.506734
58.695633 15.407421 1.447222 0.505163
63.443577 13.649961 3.006568 0.721453
60.993690 12.266026 3.185159 0.799917
62.213776 10.822972 3.040825 0.744549
62.373730 9.287407 1.245333 0.500489
61.989662 7.750633 1.299068 0.491807
61.490498 5.950674 1.215388 0.487883
61.057121 3.967451 1.240351 0.473614
55.743473 3.001621 2.425287 0.789900
60.308937 1.089967 1.226334 0.459192
60.284897 -0.452322 1.206401 0.453774
59.915836 -2.202050 1.206373 0.445009
59.336308 -2.615060 1.228750 0.441493
58.825066 -3.981934 1.037466 0.445250
59.175217 -6.103150 1.636580 0.810425
61.897339 -6.934765 2.805901 0.746753
68.592110 -10.146393 2.015834 0.494184
87.462761 -14.908002 2.602458 0.674261
86.936028 -17.117855 4.623772 0.839741
74.828125 -16.473143 2.401073 0.563299
35.537163 -9.159969 1.362907 0.751935
33.764927 -9.706123 0.639970 0.694542
24.426441 -7.641114 0.483347 0.852638
19.825092 -6.535112 0.387540 0.891518
17.911840 -6.279085 0.595388 0.776416
17.998569 -6.866774 0.616781 0.765326
12.734055 -5.318963 0.547214 0.841967
8.179602 -3.737109 0.460298 0.516851
13.067076 -6.342724 0.650957 0.735117
12.925593 -6.544282 0.263734 0.495748
13.105289 -6.885171 0.659459 0.721539
9.056961 -5.178378 0.384382 0.538803
11.057554 -6.725250 0.605470 0.684477
9.378580 -5.991312 0.200796 0.490255
9.458409 -6.315805 0.397107 0.552553
8.761415 -6.139931 0.381621 0.541079
6.738951 -5.039874 0.366109 0.552602
7.001606 -5.473850 0.395277 0.555313
6.170446 -5.181937 0.361811 0.545894
6.293065 -5.352222 0.363818 0.552555
5.733341 -5.165505 0.191608 0.483103
5.410074 -5.096274 0.355220 0.546393
5.163595 -5.307650 0.335164 0.499087
5.406067 -5.713167 0.184649 0.470673
5.760060 -6.292730 0.370789 0.555415
4.997385 -5.891779 0.193617 0.478365
4.776989 -5.893946 0.173454 0.448103
6.233599 -8.196159 0.462661 0.518512
4.656572 -6.195454 0.224387 0.489917
3.379679 -4.796726 0.148821 0.452205
4.303424 -6.623678 0.203314 0.471928
4.477266 -7.138174 0.210246 0.475818
4.357667 -7.162695 0.272979 0.502904
22.751318 -40.549957 1.524931 0.756783
22.669399 -41.720818 2.080476 0.794906
13.492522 -27.857689 1.077698 0.649653
37.637058 -81.621704 3.189157 1.000000
35.041031 -82.117012 3.150183 1.000000
32.445324 -79.921448 2.835017 1.000000
30.203884 -79.494202 2.771722 1.000000
nan nan nan 0.000000
24.412445 -75.022064 1.390997 0.648034
10.475384 -35.900257 1.061277 0.800695
9.180477 -34.379181 0.636866 0.520390
1.538088 -6.231907 0.292748 0.508302
7.380860 -33.440502 0.973989 0.821540
6.664608 -33.522163 0.983491 0.821472
1.069062 -6.090226 0.141377 0.463115
0.645660 -4.949477 0.134012 0.457352
3.845665 -36.095104 1.035467 0.864764
0.542938 -5.724390 0.236934 0.493438
0.374233 -4.825472 0.205542 0.461170
1.214856 -36.674267 1.814374 0.774465
0.392580 -34.788174 1.710037 0.754377
-0.610660 -34.307102 1.561654 0.750777
-1.013509 -33.010517 1.582260 0.738216
-0.890442 -15.004404 0.777263 0.556340
-1.135827 -13.403396 0.576296 0.563982
-1.444688 -13.053044 0.565709 0.571154
-1.718329 -12.645288 0.564826 0.597031
-1.924453 -12.246796 0.556407 0.564598
-2.202376 -12.154774 0.557884 0.567042
-2.485884 -11.905565 0.555844 0.578111
-3.176625 -13.172047 0.621482 0.565764
-3.108791 -11.791487 0.569470 0.560186
-3.175636 -11.470962 0.596708 0.525690
-3.926791 -12.212708 0.606307 0.596251
-3.785553 -11.393870 0.585030 0.594938
-4.038451 -11.431503 0.587305 0.588915
-4.418591 -11.581944 0.599729 0.563686
-4.859588 -11.473055 0.597913 0.580580
-12.811460 -28.312719 1.190035 0.800810
-5.560475 -11.829926 0.625238 0.589180
-14.777698 -28.378319 1.657983 0.737761
-15.643997 -28.571342 1.350850 0.812219
-16.372591 -27.973255 1.689683 0.740995
-17.357527 -28.125416 1.286322 0.845961
-8.103749 -12.292715 0.703125 0.616466
-7.823959 -11.724392 0.692075 0.615904
-8.280510 -11.768067 0.699625 0.618015
-8.688518 -11.282134 0.700844 0.622889
-8.685617 -10.852279 0.692881 0.622234
-8.771665 -10.355195 0.683206 0.616296
-8.843685 -9.860132 0.688246 0.625572
-9.461637 -10.208361 0.719241 0.585016
-9.212242 -9.422066 0.668885 0.562560
-9.939821 -9.565140 0.722655 0.637799
-10.199001 -9.540134 0.730596 0.646618
-10.418897 -9.086929 0.710276 0.565444
-8.931536 -7.685677 0.607395 0.551258
-10.782365 -8.552475 0.718467 0.548256
-16.375843 -12.504866 1.030655 0.657284
-14.722802 -10.592934 0.918406 0.609607
-13.575240 -9.268032 0.833550 0.603929
-13.485528 -8.855836 0.835758 0.630047
-13.583878 -8.350592 0.828266 0.636831
-14.499350 -8.689194 0.863500 0.594097
-14.261972 -7.891839 0.834505 0.603456
-15.027927 -7.647566 0.870270 0.657232
-14.792893 -7.263683 0.861847 0.575765
-15.089872 -7.146680 0.864418 0.653789
-15.573483 -6.552572 0.879429 0.648841
-15.424316 -6.254905 0.868754 0.688915
-16.709419 -6.190832 0.892423 0.688329
-17.191067 -5.827519 0.908538 0.695854
-17.092436 -5.526464 0.920195 0.646052
-19.924139 -5.875078 1.087636 0.624386
-22.518816 -5.968432 1.208647 0.654715
-22.745903 -5.579623 1.177589 0.666264
-23.122808 -4.761108 1.182385 0.669844
-23.471481 -4.323385 1.128193 0.792755
-23.691704 -3.985637 1.122781 0.786030
-24.354250 -3.357855 0.429533 0.485827
-24.230009 -2.666457 0.425490 0.485098
-15.180285 -1.141821 0.789134 0.582880
-40.509773 -2.278926 2.093348 0.834239
-13.306659 -0.470750 0.607859 0.999452
-36.383701 -0.632056 1.865002 0.790091
nan nan nan 0.000000
-15.187613 0.023194 0.035586 0.480365
-14.368086 0.578523 0.169210 0.458135
-19.671936 1.177759 -0.339403 0.528980
-21.838453 1.834077 -0.376460 0.539670
-22.507233 2.369781 -0.394285 0.320989
-26.016321 3.668536 -0.390241 0.552010
-23.191996 3.752345 -0.409324 0.317981
-24.552372 4.591876 -0.393428 0.555506
-24.704348 4.978148 -0.208485 0.541309
-29.527565 7.017149 0.359689 0.514045
-25.776562 6.513882 0.293760 0.504365
-28.527119 8.504501 0.412915 0.509408
-27.948402 9.252909 0.441911 1.000000
-27.909336 9.328578 0.288338 1.000000
-29.885923 11.417451 0.085906 0.542617
-29.399601 11.435867 0.066160 0.542267
-20.074539 8.626572 0.369190 1.000000
-19.566559 9.006683 -0.059225 0.517245
-18.896042 9.172750 0.332761 1.000000
-17.962290 9.579700 -0.288158 0.553879
-17.993896 9.681845 0.184878 0.487157
-17.178028 10.325452 0.333397 1.000000
-17.097555 10.560902 0.124200 0.967743
-15.863144 10.611439 -0.238066 0.420796
-14.553752 10.295539 0.007262 0.494912
-13.324537 9.918476 0.037624 0.488641
-12.042625 9.428924 0.143524 0.467520
-11.108539 9.123862 0.011212 0.481981
-10.184624 8.784111 -0.124830 0.449921
-9.661333 8.731070 -0.158674 0.505069
-9.080180 8.590981 0.007893 0.474916
-8.430704 8.397408 0.109592 0.455115
-8.496136 8.583357 0.005982 0.473291
-8.322288 8.991584 0.009586 0.473530
-8.215264 9.461987 0.003612 0.474488
-7.994110 9.646871 0.118567 0.457027
-8.052738 10.094922 0.004494 0.475635
-8.295748 10.798599 0.138521 0.459150
-7.804788 10.785154 0.011691 0.476361
-13.892438 20.929420 0.429054 0.488397
-11.006854 16.901222 0.006199 0.508301
-12.200545 20.209509 0.004815 0.522728
-11.692168 19.971781 -0.370320 0.580125
-11.340376 20.614393 -0.394341 0.583139
-11.130337 21.130043 -0.391116 0.584884
-10.608823 21.540848 -0.093433 0.531218
-9.820301 22.318102 0.417164 0.485678
-7.567532 18.386379 -0.297539 0.564332
-6.393318 15.766415 0.190849 0.469743
-7.806837 21.468884 0.116180 0.505079
-6.933571 21.086233 -0.079147 0.528265
-6.621872 21.014874 0.003668 0.516954
-6.027616 22.033886 -0.398122 0.320256
-5.983570 22.130337 -0.399851 0.319970
-5.303252 23.586746 -0.238351 0.572786
-5.163912 23.969112 -0.378193 0.587523
-4.790887 24.785492 -0.254653 0.579533
-3.810258 25.889545 0.406148 0.493733
-3.497470 25.772964 -0.282533 0.582286
-3.037884 26.505001 -0.238877 0.585271
-2.461618 27.804899 -0.341693 0.595036
-1.334457 30.812103 -0.010458 0.572716
-1.218641 30.599981 -0.297238 0.602247
0.043149 32.669922 0.466350 0.519615
0.941188 46.576908 0.806143 0.562789
2.019557 65.468521 1.029980 0.632614
3.585186 44.871304 0.781608 0.557218
3.850101 45.111885 0.783509 0.558203
5.491803 44.727562 0.704157 0.560494
5.853971 44.738899 0.685007 0.562234
6.920413 44.372471 0.778202 0.556870
8.643689 42.656895 0.756858 0.551962
4.293369 19.194382 0.089187 0.502187
10.337713 43.541553 0.737425 0.557437
11.894508 41.908932 0.421809 0.598238
12.249290 41.839958 0.409211 0.598139
11.185061 34.289925 0.624528 0.525964
1.590122 4.402719 0.051567 0.417187
1.669734 4.413828 0.079436 0.416489
3.004177 7.273796 0.004128 0.442891
3.267776 7.257006 0.003766 0.442480
18.574364 40.434204 0.414046 0.601011
19.509933 40.253883 0.404992 0.604108
15.396032 28.976482 -0.568979 0.288200
16.270828 28.829252 -0.564302 0.287853
17.023926 28.667334 -0.571790 0.287304
17.834703 28.525267 -0.564765 0.286848
18.593227 28.177084 -0.580080 0.285826
19.415112 27.869839 -0.581486 0.285138
19.792551 26.519053 -0.568184 0.288011
19.747961 24.948797 -0.536385 0.294818
19.376759 23.425085 -0.442578 0.301315
20.944437 24.115242 -0.555626 0.293661
21.108334 23.941414 -0.548360 0.294358
22.180872 23.811823 -0.516379 0.295007
22.528927 22.183163 -0.393835 0.301620
23.063330 22.576836 -0.398943 0.299459
24.329638 21.925365 -0.384703 0.298734
24.639294 21.647400 -0.380421 0.298996
24.856712 20.143236 -0.543907 0.299330
24.873665 19.442060 -0.539490 0.301340
25.895699 19.517008 -0.485498 0.303153
25.860558 18.424873 -0.451391 0.308508
29.040295 19.986012 -0.392125 0.301917
32.169044 20.958878 -0.415885 0.279612
34.173798 21.100424 -0.424278 0.273882
35.712532 20.883728 -0.425085 0.270189
38.011532 20.915152 -0.434019 0.263627
40.662701 20.590160 -0.441445 0.256555
39.989277 18.574013 -0.701745 0.276898
39.268837 17.268890 -0.729309 0.279941
39.470936 15.964929 -0.743049 0.283250
39.014324 15.001717 -0.720550 0.286215
39.350525 14.654363 -0.719968 0.287490
41.452885 13.561601 -0.732512 0.285624
41.432270 12.267882 -0.753971 0.162753
35.115402 9.401437 -0.631623 0.216269
35.853535 9.144921 -0.624160 0.198316
36.760635 8.735567 -0.609659 0.198320
37.515526 7.560466 -0.578634 0.194508
38.711254 7.127063 -0.577069 0.192537
41.786682 6.591090 -0.605526 0.171172
43.436100 5.517317 -0.604326 0.161691
43.467464 3.934030 -0.745909 0.140492
44.209045 3.549934 -0.726297 0.138856
45.021683 2.629847 -0.776483 0.119794
46.222057 1.565302 -0.780085 0.112142
46.742905 0.548169 -0.769505 0.111632
33.848186 -1.092596 -0.393529 0.274313
32.577881 -1.510816 -0.431263 0.289452
33.948322 -2.212174 -0.297631 0.311169
33.951584 -2.980516 -0.580031 0.268434
35.587807 -4.014642 -0.104214 0.363740
40.740379 -5.579413 -0.657628 0.211204
59.392315 -9.838683 -1.028903 0.147534
59.771858 -11.437056 -1.049672 0.118646
59.540989 -12.722786 -1.056197 0.129473
35.598526 -8.771669 0.563074 0.904079
33.431068 -9.549021 0.521825 0.832209
24.377838 -7.254312 0.339125 0.909313
24.980423 -8.160518 0.260228 1.000000
21.379654 -7.940541 0.359329 0.500832
19.417061 -7.785656 0.009976 0.416256
19.416229 -8.057917 -0.051180 0.442270
16.635805 -7.589556 0.181531 0.459488
16.412184 -7.944152 -0.092052 0.395315
14.075066 -7.167545 0.271205 0.455043
13.395408 -7.330714 -0.176373 0.466786
12.451730 -7.286787 -0.228670 0.477921
10.370152 -6.391677 0.096041 0.433363
10.060103 -6.379383 -0.152516 0.454972
10.165487 -6.991687 -0.093969 0.447035
8.298966 -5.980170 0.117752 0.452732
7.924450 -5.975358 -0.106050 0.440537
8.284796 -6.619740 -0.147471 0.444349
7.295605 -6.013009 -0.124651 0.445658
8.178944 -7.093650 -0.154044 0.428404
6.203817 -5.677010 -0.125633 0.438064
5.361183 -5.243642 -0.125100 0.455365
5.140001 -5.180327 0.002720 0.413230
5.840743 -6.122017 -0.115715 0.437018
4.779838 -5.250452 0.003062 0.413856
5.488480 -6.438831 -0.069587 0.425188
6.204457 -7.522815 -0.143009 0.445976
5.366948 -6.874360 0.038412 0.419068
5.221694 -7.215845 -0.142097 0.371799
5.064985 -7.125423 -0.100580 0.438107
30.255863 -45.416458 -0.799122 0.271425
16.738449 -26.640184 -0.444260 0.322720
4.456302 -7.606402 0.072783 0.423456
3.825217 -6.659882 0.012328 0.420268
2.809207 -5.397953 -0.105425 0.442046
2.627540 -5.439119 0.002323 0.418458
13.380830 -27.871439 0.505936 0.496414
3.346264 -7.519176 0.038469 0.423137
2.426203 -5.769276 -0.079255 0.436451
2.222510 -5.638057 -0.094034 0.441524
2.079701 -6.047579 -0.068633 0.434467
1.915088 -5.890722 -0.065969 0.432141
1.822461 -6.064004 -0.076624 0.437658
5.136284 -19.534500 0.055821 0.465088
1.015979 -4.341305 0.002008 0.417816
6.937035 -32.687763 -0.489672 0.542265
0.924018 -4.842783 -0.082140 0.438756
0.677586 -4.342555 0.003446 0.418425
4.537724 -32.067444 0.115572 0.509369
3.926283 -31.716452 0.273939 0.504589
0.623795 -6.147844 0.086782 0.426897
0.367836 -5.260776 0.029617 0.420361
0.143622 -4.129540 0.000637 0.421030
0.292840 -35.033669 0.244867 0.520404
-0.071043 -3.990796 0.001740 0.420767
-0.757907 -19.423361 -0.014511 0.478082
-0.993822 -16.354134 0.281925 0.457181
-1.168972 -13.270075 0.178072 0.446869
-0.467652 -4.026410 0.033285 0.415093
-1.577082 -12.760412 0.116894 0.447595
-1.915167 -11.551378 0.197552 0.440677
-1.993168 -11.699800 0.069161 0.447453
-2.244329 -11.266394 0.052057 0.447867
-2.745170 -11.572569 0.056095 0.449862
-1.193870 -4.510091 0.011043 0.424874
-1.192599 -4.331729 0.006051 0.426361
-1.301198 -4.246215 0.006663 0.426122
-3.558107 -10.806965 0.147081 0.441244
-4.332856 -11.453442 0.071157 0.451755
-1.568991 -3.936471 0.005422 0.427989
-1.652789 -4.016534 0.002918 0.428803
-1.731701 -3.874133 0.001916 0.430381
-5.360147 -11.400772 0.085583 0.453720
-2.019582 -3.912940 0.031791 0.420627
-7.765708 -13.884811 0.196963 0.459210
-7.542413 -12.855556 0.023771 0.469489
-6.933497 -11.174169 0.220423 0.446375
-7.158806 -11.403502 -0.022787 0.467646
-2.386971 -3.513454 0.001936 0.433281
-2.463661 -3.435975 0.001313 0.433624
-8.152213 -11.035941 -0.185396 0.447729
-8.666258 -10.898428 0.111981 0.459688
-8.771061 -10.531134 0.105418 0.459797
-8.894114 -9.964721 0.105027 0.458306
-9.447185 -10.266018 0.100686 0.461992
-9.587544 -9.811848 0.182656 0.451744
-9.796476 -9.553721 0.100541 0.460880
-4.297838 -3.987599 0.014210 0.439194
-9.419591 -8.229496 0.038176 0.463340
-4.555069 -3.930341 0.043019 0.430342
-9.699903 -7.952009 0.066461 0.461350
-9.433060 -7.349438 0.100171 0.453780
-11.386868 -8.130006 0.145528 0.457586
-14.616662 -10.031496 0.116754 0.478606
-13.569179 -8.736521 0.150501 0.466871
-14.146329 -8.669000 0.098970 0.476046
-13.784832 -8.231053 0.070585 0.476038
-14.761992 -8.177814 0.106167 0.476666
-13.905957 -7.356586 0.074336 0.475556
-13.797055 -6.866829 0.016906 0.479051
-13.453572 -6.156895 0.049400 0.474594
-5.903973 -2.519397 0.067217 0.430449
-14.276266 -5.543192 0.187446 0.460148
-15.173002 -5.497098 0.108435 0.474138
-16.212482 -5.799094 0.074016 0.482024
-17.573376 -5.591396 0.127207 0.482791
-17.703007 -5.188033 0.252583 0.469370
-20.374754 -5.548479 0.253095 0.480909
-22.576149 -5.556306 0.404472 0.481163
-8.395650 -1.799108 0.111432 0.435694
-6.853271 -1.206259 0.078940 0.431666
-6.779621 -1.175538 0.054573 0.436256
-23.482384 -3.337631 -0.131066 0.525322
-23.909359 -2.868198 -0.401894 0.547815
-9.258567 -0.859785 0.005372 0.460299
-13.181608 -0.813236 0.075734 0.466839
-13.545111 -0.348669 0.207953 0.450305
-14.595187 -0.165231 0.172213 0.458556
nan nan nan 0.000000
-13.054819 0.214987 -0.382791 0.346533
-13.924092 0.554245 -0.599324 0.295040
-14.657684 0.879379 -0.396802 0.341823
-18.275253 1.490533 -0.502367 0.328145
-15.121817 1.645849 -0.571557 0.564548
-22.744492 3.377532 -1.189763 0.284808
-23.469421 3.545863 -0.424131 0.316829
-22.992130 4.416329 -1.199433 0.283390
-22.649282 4.577268 -1.168853 0.285017
-25.594007 6.312732 -1.364044 0.270001
-25.545296 6.511529 -0.695324 0.299439
-25.858608 7.365475 -1.322674 0.270838
-24.982563 8.205034 -0.688389 0.299938
-24.380682 8.726934 -0.490329 0.307892
-23.942650 9.163177 -1.152316 0.279222
-24.057491 9.584313 -0.638832 0.302678
-20.935703 9.144226 -0.654568 0.594015
-19.573284 9.012873 -1.059858 0.619998
-18.861479 9.132914 -0.600731 0.585268
-18.296608 9.433668 -0.376899 0.560865
-18.361851 10.095932 -0.736092 0.596876
-18.190899 10.753176 -0.714088 0.596318
-17.789997 11.211904 -1.081437 0.622436
-16.373001 10.775589 -0.528773 0.534280
-14.603252 10.329065 -0.534782 0.533388
-13.646044 9.990877 -0.575189 0.326452
-12.011591 9.279085 -0.465832 0.336187
-11.141700 9.108391 -0.749285 0.583632
-10.162539 8.793274 -0.662462 0.513665
-10.192293 8.899164 -0.391748 0.542855
-9.186777 8.632498 -0.394293 0.541672
-8.390546 8.383537 -0.211279 0.520481
-8.359879 8.551611 -0.317316 0.536993
-8.275837 9.076605 -0.395948 0.547085
-8.119493 9.438543 -0.396273 0.549529
-7.989408 9.579031 -0.646402 0.460085
-7.987529 9.808190 -0.391188 0.549888
-8.237782 10.863749 -0.394674 0.553351
-7.705653 10.754177 -0.388432 0.551708
-14.082232 21.064789 -0.791544 0.295956
-10.931197 16.939533 -0.392622 0.572494
-12.177252 20.180153 -0.792953 0.299793
-11.015509 19.616787 -0.399010 0.321295
-10.219257 19.274799 -0.790929 0.303829
-9.807173 19.095049 -0.795639 0.304224
-8.980227 18.721943 -0.996756 0.294491
-8.190971 18.352943 -0.786245 0.307747
-7.576175 18.366192 -0.598104 0.444025
-6.417919 15.753344 -0.354419 0.560629
-7.186003 19.182417 -0.697469 0.311532
-6.942639 19.790501 -0.790075 0.305141
-6.634772 20.539564 -0.786908 0.304346
-6.220660 21.500988 -0.794287 0.301961
-5.563067 22.295929 -0.764328 0.302514
-5.331616 22.231720 -1.186331 0.280675
-5.005938 22.901121 -1.181926 0.279642
-4.117092 23.274265 -1.195468 0.279477
-3.784168 23.340111 -1.186255 0.279910
-3.321454 23.705000 -1.170245 0.280013
-2.495489 22.960085 -1.132746 0.283725
-2.123129 23.794643 -1.131981 0.281670
-1.394649 24.313396 -1.115261 0.281884
-0.615347 24.354889 -1.088677 0.283208
-0.209874 24.468594 -1.076658 0.283585
0.176825 24.551590 -1.064246 0.284037
0.862576 24.580900 -1.036534 0.285359
1.757332 24.354900 -1.277285 0.265267
2.317904 24.875498 -0.996128 0.286625
2.870820 25.356581 -0.972797 0.286420
3.372201 25.112823 -0.963991 0.287519
4.209612 27.051208 -0.739203 0.294340
5.247572 27.158869 -0.599624 0.300040
4.304132 19.195604 -0.782156 0.309608
5.181236 21.677891 -1.106166 0.279920
5.882464 21.748560 -1.158454 0.276449
6.136681 21.416019 -1.136194 0.278415
6.833811 20.949381 -1.128114 0.279660
1.518739 4.410037 -0.135612 0.426457
2.648521 6.865457 -0.382657 0.360398
3.077120 7.274684 -0.284330 0.514360
3.214845 7.261255 -0.149663 0.486893
3.210079 6.763168 -0.231833 0.371217
9.765967 19.376797 -1.082308 0.284073
9.364010 17.645004 -1.038878 0.194040
9.681967 16.843922 -1.013110 0.203959
10.077385 16.842464 -1.019848 0.202479
10.659544 17.268826 -1.040757 0.193765
11.429594 16.820219 -1.041531 0.197935
11.640306 16.934582 -1.041106 0.192638
12.280423 16.460627 -1.066538 0.198344
12.601762 16.436531 -1.066346 0.197924
13.326325 16.528782 -1.058642 0.195971
13.518594 16.050257 -1.084618 0.196859
13.887193 15.698318 -1.080207 0.198664
14.629240 15.216157 -1.101926 0.197588
15.084247 15.262118 -1.095392 0.197077
15.750632 15.257690 -1.127967 0.191189
16.104391 15.004395 -1.118525 0.193171
16.594786 14.069800 -1.122662 0.194359
16.902246 14.126604 -1.113286 0.194516
17.088598 13.513821 -1.135464 0.191874
17.402637 12.922503 -1.114704 0.195743
17.963724 12.646898 -1.101254 0.198551
18.226954 12.072633 -1.119540 0.199532
18.252504 11.888870 -1.133951 0.198052
18.268169 11.292036 -1.120501 0.202348
18.989466 10.810003 -1.082326 0.208252
19.075777 10.113321 -1.128470 0.204792
19.067427 9.713815 -1.114378 0.208248
19.929981 9.281327 -1.124915 0.207145
20.356136 9.326121 -1.139306 0.203748
20.989843 8.571649 -1.157443 0.204523
20.986546 8.225208 -1.154222 0.195751
21.715281 7.804791 -1.194157 0.193712
21.901011 7.411191 -1.196576 0.163415
22.752804 7.041967 -1.197288 0.163163
23.479221 6.828443 -1.193732 0.162577
24.690405 6.457336 -1.192393 0.162491
25.384975 5.661974 -1.348356 0.137499
18.375546 3.894927 -0.736750 0.266148
19.814631 3.250981 -0.866448 0.304793
20.027039 3.164670 -0.924251 0.253480
21.024658 2.511562 -0.976189 0.218094
21.018179 1.945352 -0.798704 0.249430
22.782677 1.924208 -1.124651 0.156858
20.709816 0.834187 -0.900219 0.239347
20.702709 0.673303 -0.792073 0.266074
30.457981 0.270294 -1.579696 0.069953
20.628061 -0.372669 -0.780407 0.317842
20.342648 -0.777446 -0.727755 0.331695
30.705570 -2.338140 -1.536432 0.089511
31.557007 -3.166397 -1.516772 0.084173
30.607327 -3.828855 -1.140276 0.170558
32.389198 -4.683163 -1.090224 0.168665
33.814743 -5.531739 -1.571473 0.095333
35.086403 -6.982560 -1.870703 0.077095
35.519142 -7.855953 -1.899327 0.073770
35.763741 -9.016877 -1.890339 0.071436
35.540997 -9.419169 -1.912323 0.070604
35.316624 -10.610701 -1.923843 0.068866
25.856394 -8.916628 -1.332850 0.567999
22.777691 -7.971279 -1.221154 0.568353
19.158428 -7.670343 -0.395099 0.366427
19.446556 -8.041376 -1.002923 0.220791
18.437325 -8.444067 -1.058043 0.200957
15.675647 -7.671220 -0.446777 0.495990
13.898346 -7.127170 -0.500171 0.521657
12.676737 -7.009415 -0.491850 0.519049
9.064468 -5.193498 -0.342523 0.498645
10.459354 -6.371529 -0.593871 0.283020
9.152440 -5.903255 -0.393145 0.371080
9.013021 -6.214028 -0.318201 0.495446
8.318575 -6.017353 -0.489096 0.361735
6.905253 -5.109321 -0.361607 0.504432
6.577280 -5.112205 -0.324714 0.498687
6.344216 -5.114181 -0.361491 0.502245
5.718996 -5.073096 -0.368329 0.505467
5.534757 -5.108012 -0.259340 0.481494
7.281841 -6.964256 -0.241875 0.396306
5.178859 -5.169569 -0.134998 0.461729
5.434023 -5.769991 -0.179848 0.400443
4.531469 -5.111039 -0.293266 0.375699
4.940938 -5.697445 -0.386021 0.369516
4.117070 -5.039030 -0.271687 0.407288
3.724233 -4.899312 -0.175085 0.461880
4.571245 -6.176316 -0.165722 0.420094
3.402774 -4.762283 -0.180322 0.468468
4.186724 -6.153378 -0.275742 0.376263
4.277515 -7.003624 -0.184988 0.402248
2.896631 -4.778355 -0.189716 0.443986
3.538678 -6.266011 -0.173909 0.381070
3.771140 -7.020503 -0.187490 0.389258
2.248110 -4.563028 -0.221392 0.480909
2.478257 -5.213839 -0.154490 0.453304
2.159665 -4.974609 -0.184070 0.474531
2.218387 -5.247538 -0.149158 0.451437
1.682713 -4.389292 -0.196967 0.447505
2.680886 -7.725474 -0.228819 0.374381
1.702336 -5.177517 -0.165199 0.455614
1.374096 -4.815249 -0.216945 0.404569
1.452500 -5.258999 -0.108536 0.445290
1.516279 -5.925206 -0.119151 0.432232
1.360897 -6.108091 -0.137177 0.418492
3.506523 -17.079618 -0.752168 0.331901
0.722720 -4.532118 -0.203023 0.471390
0.679451 -4.996229 -0.140959 0.453482
2.742056 -21.100815 -1.113079 0.189764
0.525527 -5.244956 -0.210864 0.439249
0.337947 -4.602242 -0.121484 0.450861
0.657739 -20.713165 -1.022979 0.309166
0.358393 -20.775433 -0.569640 0.328145
-0.015455 -4.008269 -0.084497 0.440610
-0.398316 -17.570827 -0.394500 0.340006
-0.864468 -17.919121 -0.398622 0.338518
-1.246150 -16.547649 -0.424533 0.341367
-1.381104 -12.571753 -0.336640 0.354226
-1.789557 -12.564816 -0.548773 0.309171
-1.940415 -12.278584 -0.223251 0.356771
-2.105023 -11.748453 -0.212286 0.358386
-2.319010 -11.137836 -0.226215 0.360226
-1.070465 -4.422629 -0.197893 0.472429
-1.071239 -4.351309 -0.180731 0.467515
-1.274115 -4.478555 -0.166628 0.467065
-3.310095 -10.611853 -0.302029 0.358139
-3.669130 -10.726262 -0.258239 0.359107
-1.452911 -4.009398 -0.113635 0.453674
-4.509397 -11.119780 -0.295544 0.355728
-1.508439 -3.583013 -0.176707 0.468047
-4.902864 -10.940577 -0.237947 0.357458
-1.692304 -3.549243 -0.097417 0.446942
-5.814080 -11.527100 -0.620408 0.319278
-2.056832 -3.754971 -0.163949 0.457244
-6.590380 -11.373272 -0.662456 0.333843
-6.977754 -11.500155 -0.689618 0.329923
-6.894302 -10.772388 -0.232629 0.355091
-7.708392 -11.039295 -0.619605 0.316414
-8.129282 -11.265234 -0.586042 0.335636
-7.936800 -10.517885 -0.645465 0.315996
-8.181366 -10.272676 -0.575630 0.328596
-3.455473 -4.076880 -0.154479 0.432311
-3.654500 -4.153289 -0.109787 0.456627
-8.939591 -9.527385 -0.320081 0.350631
-3.805942 -3.876251 -0.222181 0.438857
-9.722885 -9.685163 -0.383551 0.345762
-3.432849 -3.168941 -0.241167 0.484109
-9.037535 -8.080709 -0.224123 0.357109
-4.346663 -3.638282 -0.227467 0.483964
-4.352121 -3.481168 -0.260587 0.488223
-3.895887 -2.932885 -0.224109 0.481545
-5.111457 -3.805089 -0.245628 0.369814
-5.242877 -3.700806 -0.258133 0.368537
-4.290353 -2.795677 -0.241212 0.371933
-13.042875 -7.926770 -0.726221 0.323616
-13.320854 -7.823547 -0.774038 0.320677
-13.569657 -7.348784 -0.347471 0.342418
-13.428907 -6.945289 -0.609342 0.329439
-13.585892 -6.703728 -0.358843 0.342840
-5.442674 -2.493480 -0.310135 0.422992
-5.897967 -2.465620 -0.314568 0.505253
-5.816070 -2.355486 -0.268840 0.492196
-6.163724 -2.280870 -0.298776 0.420766
-6.460944 -2.236488 -0.326999 0.362450
-22.673286 -6.938086 -0.629396 0.309084
-7.104783 -1.989199 -0.342661 0.427687
-7.320931 -1.964671 -0.285521 0.452293
-7.841096 -1.835446 -0.291783 0.476893
-8.330954 -1.720681 -0.296876 0.503868
-7.281490 -1.282777 -0.340749 0.360506
-6.782945 -1.118858 -0.262567 0.496218
-8.131067 -1.073452 -0.383151 0.355941
-7.187304 -0.745511 -0.242900 0.485349
-9.195747 -0.862371 -0.162789 0.367757
-9.638577 -0.693721 -0.291536 0.358851
-13.764702 -0.581397 -0.505143 0.338030
-13.075598 -0.114387 -0.390986 0.345727
nan nan nan 0.000000
-9.845459 0.044473 -0.700693 0.276419
-12.966572 0.363492 -0.788061 0.322370
-14.379719 0.953708 -1.090427 0.214165
-15.405898 1.204907 -0.812108 0.238031
-16.341715 1.779709 -1.153952 0.249318
-22.263790 2.935729 -1.187313 0.164033
-22.523672 3.783518 -1.929668 0.091193
-22.557697 4.221694 -1.925139 0.090998
-22.099957 4.566679 -1.920807 0.093060
-21.705084 5.328195 -1.908713 0.095026
-21.693499 5.714454 -1.900822 0.095401
-21.318422 6.141509 -1.893884 0.097048
-21.306807 6.530717 -1.889314 0.097025
-20.906403 6.939239 -1.881565 0.098796
-20.530626 7.707228 -1.874437 0.099783
-20.516600 8.196664 -1.872748 0.099218
-20.092203 8.894485 -1.868288 0.100037
-19.344866 8.769684 -1.489915 0.647692
-18.830647 8.952456 -1.157813 0.625715
-18.239401 9.549686 -1.146571 0.624081
-17.561752 9.976038 -1.402729 0.642362
-17.368824 10.323846 -1.589244 0.136407
-15.756948 9.935752 -1.569566 0.144413
-15.423921 10.121492 -1.584332 0.143072
-14.978077 10.090265 -1.557918 0.147411
-13.659172 10.144858 -1.188263 0.292083
-12.015336 9.417130 -1.062295 0.213328
-11.119067 9.117514 -0.902045 0.516063
-8.336071 7.081474 -0.790711 0.261636
-9.698089 8.787237 -0.761203 0.323061
-9.113207 8.606190 -0.762933 0.581504
-8.376354 8.375759 -0.668375 0.330080
-8.419689 8.545632 -0.787962 0.583510
-8.267251 8.970906 -1.023240 0.599945
-8.201343 9.370577 -1.017520 0.600227
-8.087040 9.759190 -1.010351 0.600345
-7.961752 9.787025 -0.873684 0.429641
-8.354801 10.790571 -0.717006 0.577240
-7.789555 10.775854 -0.711473 0.581419
-11.201918 16.799652 -1.264974 0.170371
-7.342697 11.402819 -1.020071 0.608975
-12.059366 20.218132 -1.845565 0.238136
-7.337303 12.432836 -0.974996 0.607579
-7.204468 13.186419 -0.918233 0.606183
-7.069491 13.429598 -1.098238 0.614484
-6.872152 14.137034 -0.943070 0.608598
-6.756165 14.608496 -0.911885 0.607928
-6.597298 15.340858 -0.929089 0.610426
-6.374001 15.904834 -1.409734 0.447444
-6.277820 17.716984 -1.614273 0.137760
-5.737370 17.142757 -1.514812 0.151844
-5.819333 17.926336 -1.621465 0.136708
-5.352107 17.989479 -1.568667 0.143952
-4.426697 16.955170 -1.450286 0.161337
-4.157126 17.830193 -1.480829 0.154864
-3.476480 17.477526 -1.531491 0.151781
-3.444768 18.744318 -1.500707 0.149771
-2.814627 17.604469 -1.543952 0.151634
-2.186623 18.189146 -1.508438 0.152451
-1.862742 17.544865 -1.542179 0.152895
-1.399449 17.811880 -1.542051 0.151962
-1.028014 17.914890 -1.530350 0.153006
-0.620936 17.937990 -1.514268 0.154824
-0.182666 17.954691 -1.496683 0.156823
0.142476 17.933208 -1.474245 0.159613
0.607873 18.314781 -1.564024 0.146294
1.099834 18.562737 -1.595982 0.141404
1.820468 18.096497 -1.576944 0.145693
2.078392 18.090862 -1.563422 0.147219
2.565099 18.308762 -1.395666 0.166623
3.283828 19.500679 -1.250833 0.175091
3.529505 17.503170 -1.194203 0.190541
3.418629 16.459913 -1.441263 0.167193
3.588139 14.294781 -1.066825 0.218206
3.704711 14.335477 -1.117832 0.212705
4.549777 15.064003 -1.358831 0.181644
4.987850 15.154051 -1.335080 0.183308
1.574536 4.316460 -0.373484 0.525797
1.618253 4.272904 -0.387233 0.529053
6.171719 14.720459 -1.310549 0.187579
3.165318 7.241195 -0.539059 0.485714
3.070946 6.731222 -0.396542 0.360197
3.608291 7.057590 -0.506507 0.313907
7.488811 14.429642 -1.298227 0.189413
8.554076 14.991974 -1.486389 0.246811
8.128446 14.057499 -1.410518 0.230068
8.681639 14.055766 -1.268357 0.193732
8.636062 12.974153 -1.352261 0.186806
9.010827 12.950847 -1.331175 0.188997
9.519778 12.845286 -1.346286 0.185079
10.133104 12.872578 -1.375521 0.177100
10.560116 13.001831 -1.280846 0.192666
10.637125 12.219452 -1.402041 0.173342
11.033444 12.223628 -1.381054 0.175433
11.409945 12.314677 -1.361045 0.177707
11.006843 11.257053 -1.331844 0.151270
11.326460 10.894869 -1.311203 0.155962
11.515089 10.729858 -1.189319 0.167487
12.142193 10.484333 -1.365837 0.176017
12.530785 10.306976 -1.375773 0.181513
12.631504 9.699316 -1.361900 0.170794
13.116381 9.779728 -1.368889 0.182128
13.403742 9.270014 -1.394962 0.149342
13.977304 9.389073 -1.308642 0.150739
13.707994 8.817705 -1.365006 0.189124
14.557526 8.853017 -1.343032 0.190352
14.607837 8.458038 -1.432413 0.181168
15.398421 8.431407 -1.368134 0.188113
15.673116 8.034975 -1.522659 0.165897
16.284412 7.841942 -1.517860 0.166381
16.237173 7.264140 -1.520926 0.129970
16.262842 6.887926 -1.529867 0.130528
16.346476 6.525980 -1.529831 0.131303
16.571455 5.877520 -1.500200 0.135185
14.180992 4.823836 -1.192310 0.180586
16.587051 5.268740 -1.504863 0.139993
17.258167 4.942225 -1.539024 0.128678
17.872242 4.581152 -1.538003 0.124564
17.533375 4.115912 -1.421421 0.143668
18.385714 3.820500 -1.043089 0.219658
18.768627 3.189467 -1.452819 0.124353
18.623064 2.563274 -1.084404 0.192450
17.720070 2.256697 -1.146838 0.191687
18.028515 1.963402 -1.567285 0.101511
20.764641 1.426776 -1.702551 0.049830
20.640713 0.808006 -1.306248 0.125280
20.627533 0.533774 -1.666860 0.084991
20.272476 0.096910 -1.736966 0.054152
20.211197 -0.296447 -1.675821 0.102430
20.343636 -0.903470 -1.158109 0.305227
19.960842 -1.435148 -1.575574 0.112106
21.502773 -2.213168 -1.821862 0.100305
21.387293 -2.624052 -1.828771 0.098954
21.506386 -3.000540 -1.816111 0.104384
21.129589 -3.418253 -1.835363 0.100040
21.085859 -4.209254 -1.836051 0.104378
20.756666 -4.600123 -1.853190 0.100034
20.676544 -5.001839 -1.857228 0.100141
20.705008 -5.494164 -1.855557 0.103328
20.604992 -6.192456 -1.861096 0.104142
20.305708 -6.994298 -1.878497 0.099513
20.331099 -7.511715 -1.880691 0.102344
19.174576 -7.572602 -1.214861 0.145711
18.384815 -7.901474 -1.587635 0.125314
14.634074 -6.729044 -1.178767 0.205199
12.471703 -6.114300 -1.062440 0.250224
12.611856 -6.524965 -1.160328 0.245009
12.113468 -6.350152 -1.159938 0.289509
9.015141 -5.123610 -0.744080 0.543501
11.051041 -6.648436 -1.076385 0.317940
9.454592 -5.993475 -0.610940 0.434693
9.017237 -6.174945 -0.598812 0.477106
8.185418 -5.920232 -0.565611 0.523037
6.962578 -5.070173 -0.750450 0.547794
6.328005 -5.065160 -0.629366 0.536067
6.657998 -5.408388 -0.738016 0.547915
5.868995 -5.117772 -0.488732 0.512479
6.233557 -5.621930 -0.687503 0.518039
5.315253 -5.167779 -0.646237 0.485687
6.266773 -6.267903 -0.735514 0.340682
5.013482 -5.186349 -0.599599 0.353586
5.950662 -6.657382 -0.516841 0.359568
5.329617 -6.146227 -0.470988 0.352891
5.450277 -6.701431 -0.514426 0.360545
4.850980 -6.240564 -0.567927 0.328047
3.928199 -5.260898 -0.391448 0.368732
3.427110 -4.844421 -0.318784 0.497427
3.567609 -5.336032 -0.386187 0.368865
4.667229 -7.436838 -0.465625 0.347002
3.842102 -6.540707 -0.619813 0.313315
2.659376 -4.685120 -0.338610 0.501030
2.564655 -4.812500 -0.308255 0.491896
3.401120 -6.890977 -0.641616 0.310241
2.938170 -6.242506 -0.598021 0.316666
2.543469 -5.725597 -0.431497 0.364362
3.081426 -7.735384 -0.629032 0.296424
1.645883 -4.464401 -0.302205 0.491784
2.660210 -7.778479 -0.662637 0.287557
1.471914 -4.429063 -0.297484 0.490422
1.315629 -4.376685 -0.384353 0.511378
1.146850 -4.294962 -0.332860 0.499461
1.130157 -4.441651 -0.333049 0.503596
1.380010 -6.044747 -0.495139 0.358926
1.052346 -5.451259 -0.311579 0.371549
0.926532 -5.662251 -0.393238 0.366625
0.583029 -4.316864 -0.298579 0.492053
0.667322 -5.837960 -0.379411 0.366723
0.589156 -5.885262 -0.470585 0.343287
0.350713 -4.817708 -0.407012 0.333355
0.640218 -11.553432 -0.722234 0.309174
0.330727 -11.466257 -0.732254 0.277698
-0.092923 -12.675515 -1.098680 0.236917
-0.110903 -3.939851 -0.278647 0.494110
-0.876145 -17.315170 -0.991009 0.221074
-1.156343 -16.303984 -0.954530 0.319140
-1.549682 -15.045318 -0.928150 0.237950
-0.469097 -3.852832 -0.272715 0.487163
-2.224297 -14.175934 -0.947276 0.239201
-0.723408 -4.017799 -0.329732 0.369537
-0.989539 -4.900363 -0.395584 0.363845
-0.847696 -3.744980 -0.227646 0.480644
-1.231587 -4.836825 -0.393788 0.357007
-2.990126 -10.230056 -0.713501 0.277348
-3.971028 -12.267546 -1.047821 0.231107
-3.557268 -10.347197 -0.705611 0.276833
-1.820916 -4.824177 -0.339337 0.340274
-1.516024 -3.855431 -0.220801 0.480167
-1.735837 -4.122986 -0.381291 0.364473
-4.964493 -10.996244 -0.764326 0.264184
-2.081658 -4.232858 -0.328775 0.354118
-5.534919 -10.469710 -0.951263 0.284177
-2.399245 -4.441043 -0.339387 0.340190
-2.575939 -4.587789 -0.392711 0.362204
-6.604897 -11.104296 -1.007496 0.222345
-2.741311 -4.227275 -0.386784 0.334294
-6.541328 -9.396286 -0.796090 0.262672
-3.239848 -4.431732 -0.448794 0.325091
-3.015688 -3.916492 -0.392757 0.361947
-8.258266 -10.494856 -1.100308 0.221114
-8.495670 -9.968474 -0.782196 0.254473
-8.662374 -9.941181 -1.126050 0.218409
-3.083206 -3.327033 -0.389432 0.362313
-3.126060 -3.158074 -0.239723 0.464562
-4.312687 -4.201011 -0.457637 0.353496
-4.407860 -4.183743 -0.320860 0.336401
-3.755362 -3.264989 -0.392256 0.360970
-4.998518 -4.313333 -0.364680 0.328902
-5.039842 -4.117184 -0.510162 0.349076
-4.457582 -3.419935 -0.326934 0.424441
-4.085493 -2.930353 -0.265383 0.449460
nan nan nan 0.000000
-4.888608 -3.259048 -0.459612 0.354951
-5.235176 -3.227228 -0.330288 0.363495
-4.755841 -2.727161 -0.391091 0.514283
-4.825305 -2.704667 -0.318930 0.502476
-14.345409 -7.266658 -0.856424 0.230411
-13.989746 -6.832747 -0.829622 0.235762
-7.816975 -3.619172 -0.547891 0.297494
-6.565015 -2.854314 -0.550181 0.299333
-7.917721 -3.258753 -0.655752 0.287009
-7.068184 -2.646384 -0.608667 0.296162
-7.476281 -2.480223 -0.661315 0.339204
-8.227448 -2.531233 -0.607994 0.340751
-8.078255 -2.363111 -0.717429 0.334666
-8.551937 -2.348666 -0.616563 0.337870
-8.863332 -2.221007 -0.642894 0.311572
-6.126535 -1.304828 -0.383507 0.326562
-7.120570 -1.255801 -0.388681 0.356669
-6.166968 -0.980365 -0.389869 0.325746
-7.308748 -1.066482 -0.390609 0.356372
-8.987530 -1.043781 -0.771016 0.330636
-8.036924 -0.735083 -0.654664 0.285761
-7.301076 -0.503423 -0.396684 0.322031
-9.254727 -0.300821 -0.673090 0.332592
-12.497267 -0.289942 -0.786820 0.255050
nan nan nan 0.000000
-12.113533 0.046532 -1.185385 0.257135
-9.750951 0.247181 -1.032894 0.312617
-12.877157 0.831972 -1.513316 0.116321
-14.760547 1.280864 -1.556806 0.108470
-15.932117 1.875517 -1.587104 0.096196
-15.223431 2.103112 -1.738819 0.081503
-15.311823 2.581860 -1.663257 0.091098
-14.815059 2.846426 -1.842051 0.068795
-14.827629 3.269946 -1.691639 0.088750
-14.907953 3.726622 -1.643779 0.094324
-15.685936 4.166227 -1.973120 0.113947
-14.419776 4.038130 -1.716955 0.085705
-13.779867 4.504045 -1.593297 0.105884
-14.397914 5.158566 -1.630472 0.096280
-13.793208 5.010793 -1.594677 0.104747
-13.624711 5.289288 -1.716040 0.087161
-13.502904 5.818624 -1.595181 0.104490
-13.223677 6.039935 -1.749472 0.083433
-12.893133 6.434593 -1.587235 0.106860
-13.270027 6.743969 -1.734031 0.083298
-15.198148 8.305709 -2.087312 0.094191
-15.185680 8.705667 -1.593707 0.085575
-13.229514 8.086036 -1.839638 0.066620
-13.022758 8.617226 -1.915752 0.119725
-12.955866 8.941691 -1.593054 0.097944
-11.706944 8.696426 -1.590170 0.105461
-10.890346 8.449984 -1.594690 0.107570
-10.185309 8.308722 -1.581692 0.147201
-8.212942 7.069906 -1.191147 0.301155
-9.710847 8.543107 -1.559645 0.167248
-9.208187 8.632473 -1.392134 0.281862
-12.955977 12.860436 -2.222822 0.228268
-8.417646 8.818026 -1.425614 0.262925
-11.214844 12.312008 -1.718555 0.256897
-10.655328 12.232402 -1.821158 0.251888
-9.874800 11.937984 -1.525914 0.160308
-7.988353 9.928864 -1.416168 0.225776
-8.202415 10.660474 -1.239084 0.156208
-7.752104 10.781487 -1.483615 0.272878
-9.387582 13.682178 -1.882478 0.102799
-9.305517 14.074584 -1.634034 0.085819
-7.878430 13.088352 -1.683350 0.088409
-6.419430 11.267309 -1.497393 0.125698
-6.450240 11.708173 -1.418806 0.134611
-5.929667 11.367902 -1.571443 0.111334
-5.821694 12.098420 -1.593477 0.110784
-5.655649 12.473731 -1.659801 0.099997
-5.512159 12.943585 -1.594458 0.107726
-5.268172 13.240962 -1.584791 0.107808
-4.361080 12.009132 -1.568406 0.086260
-4.516138 13.295662 -1.661422 0.098590
-4.248755 13.084696 -1.685362 0.096390
-3.725802 13.452823 -1.686486 0.094535
-3.363905 13.339269 -1.673590 0.097892
-3.021323 13.307953 -1.656994 0.101012
-2.991674 14.091203 -1.714099 0.117093
-2.500626 14.302497 -1.721774 0.124436
-2.179034 14.501214 -1.585391 0.106730
-1.698686 14.111835 -1.596228 0.107871
-1.315482 14.177042 -1.596599 0.107777
-1.092071 14.244097 -1.592670 0.108165
-0.695881 13.786022 -1.624671 0.105196
-0.493476 13.878273 -1.598758 0.109074
-0.109661 14.496832 -1.751595 0.139840
0.126298 14.691472 -1.745202 0.140018
0.784362 14.254934 -1.595451 0.107505
1.119938 14.136743 -1.639134 0.102121
1.147640 13.676365 -1.631406 0.106268
1.635857 13.342474 -1.635809 0.107552
1.947370 14.476597 -1.596286 0.106686
2.520172 15.102217 -1.506449 0.114158
2.357599 12.512019 -1.482406 0.131689
2.606816 12.552433 -1.547231 0.159697
3.015356 12.214647 -1.541071 0.166819
3.265105 11.904815 -1.510682 0.173031
3.766032 12.953718 -1.582441 0.162767
2.312419 6.943475 -0.783973 0.279144
1.533043 4.306901 -0.549273 0.541853
2.541070 6.763699 -0.790881 0.331052
2.769903 6.882757 -0.751249 0.333572
2.912476 6.640209 -0.797931 0.329750
3.645694 7.569686 -0.779905 0.329781
3.295378 6.729705 -0.783875 0.281426
6.276890 11.639461 -1.524843 0.170759
6.247768 11.397430 -1.593057 0.161903
6.587760 10.963174 -1.545655 0.129618
6.975849 10.942840 -1.523348 0.132574
7.391031 10.892227 -1.497610 0.136088
7.117145 10.428833 -1.537576 0.132836
7.482590 10.128153 -1.541525 0.133158
7.971515 10.085409 -1.547266 0.132045
8.328018 10.049253 -1.517352 0.136342
8.220743 9.793038 -1.518656 0.130925
8.673625 9.645630 -1.516781 0.137711
8.742292 9.305804 -1.547227 0.135503
9.156940 9.314050 -1.576896 0.148952
9.432865 8.991117 -1.538161 0.135513
9.889181 8.892530 -1.591720 0.163088
9.919644 8.533031 -1.584443 0.129962
10.298458 8.498156 -1.576387 0.131186
10.193485 8.080551 -1.584477 0.131709
10.319622 7.646105 -1.565761 0.136149
10.583135 7.402907 -1.575129 0.132827
11.019252 7.480789 -1.586664 0.159137
11.010418 6.966450 -1.580894 0.161273
11.084829 6.707374 -1.587163 0.166999
11.468851 6.467051 -1.594300 0.169744
11.541738 6.257259 -1.573305 0.173599
10.759020 5.503407 -1.356009 0.285813
10.795769 5.166168 -1.307017 0.141695
13.094191 5.689636 -1.590495 0.114700
13.133018 5.345403 -1.596226 0.102401
11.375956 4.535957 -1.449586 0.151870
12.607965 4.645041 -1.589884 0.132772
13.868244 4.636976 -1.541459 0.122433
14.143854 4.456110 -1.521321 0.173987
14.910803 4.124606 -1.877288 0.090146
15.128599 3.720009 -1.884853 0.079196
15.396297 3.463347 -1.885011 0.078650
15.458256 3.000936 -1.881748 0.066430
13.412962 2.191277 -1.594033 0.110046
15.793643 2.186468 -1.866251 0.073653
15.508312 2.056277 -1.878590 0.072654
16.251074 1.722336 -1.870990 0.074119
15.756536 1.263435 -1.889851 0.073180
15.773108 0.911853 -1.934255 0.076652
16.256721 0.595330 -1.957948 0.080293
16.193413 -0.186859 -1.971233 0.083625
15.834875 -0.344205 -1.936469 0.134134
16.104946 -0.603043 -1.954865 0.137521
15.934327 -1.107865 -1.960074 0.081753
16.277773 -1.799170 -1.959836 0.088331
15.525338 -1.830849 -1.915413 0.078197
16.239361 -2.602906 -1.960027 0.089941
15.546793 -2.704911 -1.918871 0.080176
15.877862 -2.991209 -1.977113 0.088166
15.940330 -3.473849 -1.974024 0.089299
15.562171 -3.903415 -1.948300 0.075912
15.908555 -4.294703 -1.977481 0.089524
15.547211 -4.682125 -1.971360 0.072924
15.567867 -5.014094 -1.992085 0.084724
15.178355 -5.503028 -1.979973 0.072837
15.151446 -5.814017 -1.984758 0.072340
15.163156 -6.315745 -1.994997 0.070734
14.882539 -6.766473 -1.445483 0.252531
12.315052 -5.970280 -1.266381 0.174517
12.240008 -6.348454 -1.685583 0.252650
11.552595 -6.208932 -1.372811 0.168139
9.054563 -5.082502 -0.995101 0.554239
8.558668 -5.104993 -1.172380 0.219696
10.076126 -6.387143 -1.406205 0.286360
9.044691 -5.937375 -1.144167 0.200621
8.281010 -5.979171 -1.074271 0.284543
6.762152 -5.020795 -0.777187 0.549755
7.103709 -5.700487 -1.100463 0.315802
8.082347 -6.721488 -1.264216 0.216791
6.299787 -5.468943 -0.736716 0.548514
5.618740 -5.156977 -0.811694 0.334206
5.437140 -5.187590 -0.901504 0.309886
5.550763 -5.664680 -0.749914 0.301332
4.436523 -4.773898 -0.772721 0.334814
4.316453 -4.891453 -0.768510 0.335259
4.108339 -4.729215 -0.716300 0.342179
5.362869 -6.568531 -0.924117 0.253784
4.142238 -5.250252 -0.786157 0.295302
3.911822 -5.239604 -0.588213 0.344081
4.734233 -6.641447 -0.997076 0.244052
3.889254 -5.724205 -0.745501 0.283688
3.866670 -6.133709 -0.780346 0.264002
3.464730 -5.905121 -0.749228 0.279227
2.678041 -4.822167 -0.601493 0.353541
2.915075 -5.442234 -0.673110 0.295719
3.244739 -6.502472 -0.722173 0.282884
2.576437 -5.428112 -0.548837 0.356080
3.106333 -6.929668 -0.883923 0.242619
2.056027 -5.079648 -0.669687 0.343883
1.736814 -4.472197 -0.532158 0.528416
1.861961 -5.103144 -0.626240 0.351110
1.755328 -5.269497 -0.550055 0.336545
2.223683 -7.527696 -0.806442 0.264002
1.386040 -5.218773 -0.599517 0.351832
1.139656 -4.831978 -0.444525 0.362909
1.159308 -5.215619 -0.484630 0.359922
2.121950 -11.576423 -1.404944 0.133932
0.759283 -4.559215 -0.518474 0.357367
0.749095 -4.974943 -0.448278 0.361130
1.174124 -11.137053 -1.310115 0.163995
1.027354 -12.175653 -1.488325 0.182109
0.278225 -4.042523 -0.382298 0.513600
0.141226 -3.974801 -0.375170 0.509508
0.218104 -11.304049 -1.156051 0.194304
0.064416 -12.109127 -1.134803 0.191733
-0.494299 -12.367167 -1.512980 0.102377
-1.027666 -15.995239 -1.962112 0.012065
-1.284297 -15.189682 -1.870572 0.027028
-1.591732 -14.195200 -1.343229 0.147994
-1.778728 -13.255675 -1.368996 0.151815
-1.896116 -12.455894 -1.264978 0.169586
-2.152374 -11.912853 -1.403312 0.154998
-2.423912 -12.279960 -1.279824 0.162598
-2.574838 -11.053415 -1.336095 0.166004
-1.293866 -5.012998 -0.616098 0.347233
-2.870246 -10.379540 -0.944537 0.211918
-3.317577 -10.315011 -1.259074 0.168443
-3.411893 -10.348499 -1.095554 0.197360
-3.938364 -10.981043 -1.087959 0.190390
-2.164686 -5.662075 -0.729146 0.290852
-2.584231 -6.020355 -0.675692 0.342268
-1.754272 -3.754925 -0.371866 0.507960
-2.830728 -5.923334 -0.710372 0.327299
-2.223401 -4.268801 -0.478526 0.345903
-5.959176 -11.180179 -1.113080 0.178311
-6.313165 -10.819555 -1.098573 0.180899
